# .PCD v.7 - Point Cloud Data file format
VERSION .7
FIELDS x y z intensity source
SIZE 4 4 4 4 4
TYPE F F F F F
COUNT 1 1 1 1 1
WIDTH 1127
HEIGHT 1
VIEWPOINT 0 0 0 1 0 0 0
POINTS 1127
DATA ascii
-9.181168 5.887980 -2.633858 100.000000 2
-9.180013 5.900790 -2.633899 100.000000 2
-9.178849 5.914244 -2.633942 100.000000 2
-8.872183 6.346176 -2.807000 100.000000 2
-8.872655 6.360758 -2.807042 100.000000 2
-8.873154 6.374644 -2.807081 100.000000 2
-9.271348 6.452343 -2.578297 100.000000 2
-9.258169 6.466378 -2.586514 100.000000 2
-9.259077 6.479541 -2.586550 100.000000 2
-9.231980 6.494746 -2.602949 100.000000 2
-9.232992 6.508006 -2.602985 100.000000 2
-9.234052 6.521262 -2.603020 100.000000 2
-9.235161 6.534514 -2.603056 100.000000 2
-9.236318 6.547762 -2.603091 100.000000 2
-9.372750 6.908231 -2.554922 100.000000 2
-9.375398 6.921579 -2.554953 100.000000 2
-9.378096 6.934915 -2.554984 100.000000 2
-9.380846 6.948241 -2.555015 100.000000 2
-9.562501 6.923822 -2.448625 100.000000 2
-9.565205 6.936439 -2.448654 100.000000 2
-9.567958 6.949046 -2.448683 100.000000 2
-9.570760 6.961642 -2.448711 100.000000 2
-9.573609 6.974227 -2.448740 100.000000 2
-9.576640 6.987372 -2.448769 100.000000 2
-9.579588 6.999934 -2.448797 100.000000 2
-9.582585 7.012485 -2.448825 100.000000 2
-9.484504 7.191763 -2.531008 100.000000 2
-9.488239 7.204679 -2.531034 100.000000 2
-9.492196 7.218166 -2.531062 100.000000 2
-9.652213 7.213070 -2.441066 100.000000 2
-9.656203 7.225897 -2.441092 100.000000 2
-9.660243 7.238709 -2.441117 100.000000 2
-9.677721 7.247210 -2.432953 100.000000 2
-9.681847 7.259935 -2.432978 100.000000 2
-9.712728 7.263839 -2.416624 100.000000 2
-9.730437 7.272512 -2.408459 100.000000 2
-9.734663 7.285024 -2.408483 100.000000 2
-9.738940 7.297520 -2.408507 100.000000 2
-9.743456 7.310541 -2.408531 100.000000 2
-9.906857 7.633255 -2.392708 100.000000 2
-9.913026 7.646082 -2.392727 100.000000 2
-9.931883 7.652716 -2.384553 100.000000 2
-9.950742 7.659212 -2.376379 100.000000 2
-9.957276 7.672352 -2.376398 100.000000 2
-9.963614 7.684958 -2.376415 100.000000 2
-9.970264 7.698039 -2.376433 100.000000 2
-9.976974 7.711090 -2.376451 100.000000 2
-9.971281 7.730613 -2.384661 100.000000 2
-9.978138 7.743659 -2.384679 100.000000 2
-11.634862 4.670276 -1.630028 100.000000 2
-11.653481 4.709357 -1.605687 100.000000 2
-11.646348 4.714949 -1.605723 100.000000 2
-11.639242 4.720575 -1.605760 100.000000 2
-11.632424 4.726024 -1.605795 100.000000 2
-11.625371 4.731715 -1.605832 100.000000 2
-11.618344 4.737439 -1.605869 100.000000 2
-11.611603 4.742983 -1.605904 100.000000 2
-11.595626 4.737928 -1.614069 100.000000 2
-11.588888 4.743575 -1.614105 100.000000 2
-11.563973 4.727728 -1.630398 100.000000 2
-11.557189 4.733519 -1.630434 100.000000 2
-11.550431 4.739340 -1.630471 100.000000 2
-11.506715 4.702644 -1.663024 100.000000 2
-11.499818 4.708696 -1.663061 100.000000 2
-11.483607 4.704226 -1.671229 100.000000 2
-11.476717 4.710382 -1.671266 100.000000 2
-11.470119 4.716331 -1.671303 100.000000 2
-11.463285 4.722548 -1.671340 100.000000 2
-11.392783 4.672538 -1.720200 100.000000 2
-11.386021 4.678854 -1.720238 100.000000 2
-11.379018 4.685454 -1.720277 100.000000 2
-11.352894 4.671402 -1.736579 100.000000 2
-11.346128 4.677892 -1.736617 100.000000 2
-11.290402 4.633768 -1.777317 100.000000 2
-11.283750 4.640261 -1.777355 100.000000 2
-11.276849 4.647054 -1.777395 100.000000 2
-11.269978 4.653876 -1.777435 100.000000 2
-11.263409 4.660455 -1.777473 100.000000 2
-10.926192 4.340119 -2.045923 100.000000 2
-11.209871 4.634476 -1.810086 100.000000 2
-11.202946 4.641592 -1.810126 100.000000 2
-11.196327 4.648451 -1.810166 100.000000 2
-11.026885 4.499428 -1.940359 100.000000 2
-11.019374 4.507345 -1.940403 100.000000 2
-10.981413 4.486006 -1.964851 100.000000 2
-10.974147 4.493797 -1.964895 100.000000 2
-11.028961 4.559039 -1.916125 100.000000 2
-11.021999 4.566629 -1.916167 100.000000 2
-11.015070 4.574248 -1.916209 100.000000 2
-11.008172 4.581897 -1.916252 100.000000 2
-10.602660 4.232162 -2.225481 100.000000 2
-9.104305 5.718376 -2.681551 100.000000 2
-9.102483 5.732070 -2.681597 100.000000 2
-9.100793 5.745118 -2.681641 100.000000 2
-9.168951 5.766973 -2.640840 100.000000 2
-9.167305 5.780430 -2.640884 100.000000 2
-9.165784 5.793251 -2.640927 100.000000 2
-9.164235 5.806718 -2.640971 100.000000 2
-9.162805 5.819550 -2.641014 100.000000 2
-9.161421 5.832387 -2.641056 100.000000 2
-9.201998 5.850249 -2.616590 100.000000 2
-9.200720 5.862949 -2.616631 100.000000 2
-9.199487 5.875652 -2.616673 100.000000 2
-9.220934 5.955988 -2.600582 100.000000 2
-9.301879 6.435140 -2.552974 100.000000 2
-9.302681 6.448104 -2.553011 100.000000 2
-9.303530 6.461064 -2.553047 100.000000 2
-9.304427 6.474022 -2.553083 100.000000 2
-9.221200 6.493129 -2.602185 100.000000 2
-9.320387 6.498850 -2.544978 100.000000 2
-9.321421 6.511745 -2.545013 100.000000 2
-9.322504 6.524636 -2.545049 100.000000 2
-9.323633 6.537524 -2.545084 100.000000 2
-9.226762 6.559387 -2.602367 100.000000 2
-9.579394 6.916313 -2.431606 100.000000 2
-9.582079 6.928824 -2.431635 100.000000 2
-9.584812 6.941324 -2.431665 100.000000 2
-9.587593 6.953814 -2.431695 100.000000 2
-9.590422 6.966292 -2.431724 100.000000 2
-9.593431 6.979327 -2.431754 100.000000 2
-9.596358 6.991783 -2.431783 100.000000 2
-9.599333 7.004228 -2.431812 100.000000 2
-9.602355 7.016661 -2.431841 100.000000 2
-9.921465 7.650925 -2.384029 100.000000 2
-9.952935 7.651193 -2.367671 100.000000 2
-9.984599 7.651712 -2.351314 100.000000 2
-9.990858 7.664151 -2.351333 100.000000 2
-9.997424 7.677060 -2.351354 100.000000 2
-10.004050 7.689938 -2.351373 100.000000 2
-10.010733 7.702786 -2.351393 100.000000 2
-10.017475 7.715604 -2.351413 100.000000 2
-10.024275 7.728390 -2.351432 100.000000 2
-10.031133 7.741147 -2.351450 100.000000 2
-11.548731 7.198625 -1.434437 100.000000 2
-11.553840 7.205352 -1.434442 100.000000 2
-11.559156 7.212276 -1.434448 100.000000 2
-11.564509 7.219170 -1.434454 100.000000 2
-11.558688 7.234520 -1.442651 100.000000 2
-11.564162 7.241417 -1.442656 100.000000 2
-11.569852 7.248506 -1.442662 100.000000 2
-11.626848 4.686023 -1.601682 100.000000 2
-11.619403 4.691647 -1.601703 100.000000 2
-11.612250 4.697105 -1.601722 100.000000 2
-11.604860 4.702801 -1.601743 100.000000 2
-11.597760 4.708327 -1.601762 100.000000 2
-11.590686 4.713887 -1.601782 100.000000 2
-11.583639 4.719480 -1.601802 100.000000 2
-11.576877 4.724897 -1.601822 100.000000 2
-11.569882 4.730555 -1.601842 100.000000 2
-11.562913 4.736246 -1.601862 100.000000 2
-11.547246 4.730883 -1.609994 100.000000 2
-11.540279 4.736681 -1.610015 100.000000 2
-11.533597 4.742294 -1.610034 100.000000 2
-11.472158 4.683447 -1.658735 100.000000 2
-11.465234 4.689371 -1.658756 100.000000 2
-11.458338 4.695325 -1.658777 100.000000 2
-11.451469 4.701312 -1.658797 100.000000 2
-11.444627 4.707329 -1.658818 100.000000 2
-11.437813 4.713377 -1.658839 100.000000 2
-11.431026 4.719456 -1.658860 100.000000 2
-11.415061 4.714876 -1.666995 100.000000 2
-11.398769 4.710647 -1.675131 100.000000 2
-11.344446 4.664812 -1.715726 100.000000 2
-10.993734 4.475041 -1.935131 100.000000 2
-10.986175 4.482827 -1.935157 100.000000 2
-10.989116 4.500104 -1.927065 100.000000 2
-10.981964 4.507597 -1.927090 100.000000 2
-10.974547 4.515433 -1.927116 100.000000 2
-10.967459 4.522987 -1.927142 100.000000 2
-10.650519 4.242613 -2.170688 100.000000 2
-10.642294 4.251527 -2.170718 100.000000 2
-10.634106 4.260475 -2.170748 100.000000 2
-10.625955 4.269458 -2.170777 100.000000 2
-10.617843 4.278475 -2.170807 100.000000 2
-10.599577 4.277765 -2.178954 100.000000 2
-10.591500 4.286892 -2.178984 100.000000 2
-10.519836 4.240293 -2.227724 100.000000 2
-10.511945 4.249360 -2.227754 100.000000 2
-10.503750 4.258854 -2.227785 100.000000 2
-10.495933 4.267985 -2.227815 100.000000 2
-10.487816 4.277547 -2.227846 100.000000 2
-9.063359 5.739948 -2.663918 100.000000 2
-9.061743 5.752906 -2.663953 100.000000 2
-9.060094 5.766518 -2.663990 100.000000 2
-9.058571 5.779487 -2.664026 100.000000 2
-9.029026 5.789932 -2.680345 100.000000 2
-9.027585 5.803010 -2.680381 100.000000 2
-9.026189 5.816092 -2.680416 100.000000 2
-9.135613 5.854058 -2.615355 100.000000 2
-9.134395 5.866763 -2.615390 100.000000 2
-9.133163 5.880108 -2.615426 100.000000 2
-9.132035 5.892821 -2.615460 100.000000 2
-9.267367 6.450145 -2.535482 100.000000 2
-9.268271 6.462998 -2.535515 100.000000 2
-9.217393 6.532214 -2.568276 100.000000 2
-9.218600 6.545250 -2.568310 100.000000 2
-9.247888 6.555575 -2.552045 100.000000 2
-9.277203 6.565689 -2.535780 100.000000 2
-9.250583 6.582033 -2.552113 100.000000 2
-9.251972 6.594947 -2.552146 100.000000 2
-9.407355 6.590679 -2.462534 100.000000 2
-9.408773 6.603018 -2.462566 100.000000 2
-9.410307 6.615939 -2.462599 100.000000 2
-9.411818 6.628267 -2.462630 100.000000 2
-9.402744 6.667677 -2.470876 100.000000 2
-9.404527 6.680621 -2.470909 100.000000 2
-9.890755 7.673291 -2.375553 100.000000 2
-9.897424 7.686362 -2.375583 100.000000 2
-9.979161 7.660598 -2.326644 100.000000 2
-9.910940 7.712414 -2.375642 100.000000 2
-9.917786 7.725393 -2.375671 100.000000 2
-9.981181 7.724484 -2.343081 100.000000 2
-9.988081 7.737144 -2.343110 100.000000 2
-11.607661 4.695027 -1.584817 100.000000 2
-11.600570 4.700346 -1.584828 100.000000 2
-11.593243 4.705898 -1.584839 100.000000 2
-11.586204 4.711285 -1.584849 100.000000 2
-11.578930 4.716906 -1.584860 100.000000 2
-11.571943 4.722361 -1.584871 100.000000 2
-11.564981 4.727848 -1.584882 100.000000 2
-11.558045 4.733368 -1.584893 100.000000 2
-11.469920 4.696125 -1.633567 100.000000 2
-11.463098 4.701871 -1.633579 100.000000 2
-11.456302 4.707649 -1.633590 100.000000 2
-11.412719 4.670682 -1.666015 100.000000 2
-11.405783 4.676689 -1.666028 100.000000 2
-11.398874 4.682726 -1.666040 100.000000 2
-11.391992 4.688795 -1.666052 100.000000 2
-11.291452 4.646632 -1.722843 100.000000 2
-11.284679 4.652936 -1.722856 100.000000 2
-11.277933 4.659270 -1.722869 100.000000 2
-11.270947 4.665888 -1.722883 100.000000 2
-11.264258 4.672281 -1.722896 100.000000 2
-11.257597 4.678703 -1.722910 100.000000 2
-11.250964 4.685155 -1.722923 100.000000 2
-11.211537 4.684475 -1.739174 100.000000 2
-11.205194 4.690861 -1.739187 100.000000 2
-11.198615 4.697541 -1.739201 100.000000 2
-11.192326 4.703980 -1.739215 100.000000 2
-11.185804 4.710716 -1.739229 100.000000 2
-11.179571 4.717210 -1.739243 100.000000 2
-10.568725 4.234671 -2.185148 100.000000 2
-10.560509 4.243752 -2.185168 100.000000 2
-10.552329 4.252868 -2.185188 100.000000 2
-10.544527 4.261636 -2.185207 100.000000 2
-10.395333 4.824962 -2.064562 100.000000 2
-10.390304 4.833538 -2.064582 100.000000 2
-10.385070 4.842542 -2.064602 100.000000 2
-10.379871 4.851566 -2.064623 100.000000 2
-10.374940 4.860199 -2.064643 100.000000 2
-8.345730 5.250184 -3.089733 100.000000 2
-9.314977 5.895737 -2.481712 100.000000 2
-9.313936 5.907668 -2.481742 100.000000 2
-9.312887 5.920199 -2.481774 100.000000 2
-9.311930 5.932138 -2.481804 100.000000 2
-9.310971 5.944676 -2.481836 100.000000 2
-8.385609 6.248849 -3.010975 100.000000 2
-8.385822 6.264780 -3.011016 100.000000 2
-8.386092 6.280710 -3.011057 100.000000 2
-8.386405 6.295880 -3.011096 100.000000 2
-8.386790 6.311807 -3.011138 100.000000 2
-8.955634 6.422010 -2.686280 100.000000 2
-9.294076 6.415237 -2.491177 100.000000 2
-9.294888 6.427838 -2.491210 100.000000 2
-9.295746 6.440436 -2.491242 100.000000 2
-9.296650 6.453031 -2.491275 100.000000 2
-9.227338 6.470947 -2.531965 100.000000 2
-9.228355 6.483792 -2.531998 100.000000 2
-9.229419 6.496633 -2.532032 100.000000 2
-9.230529 6.509470 -2.532066 100.000000 2
-9.277502 6.556501 -2.507803 100.000000 2
-9.278896 6.569764 -2.507838 100.000000 2
-9.266266 6.583950 -2.516004 100.000000 2
-9.267696 6.596651 -2.516037 100.000000 2
-9.269173 6.609348 -2.516071 100.000000 2
-9.863318 7.598045 -2.348058 100.000000 2
-9.869443 7.610551 -2.348093 100.000000 2
-9.888240 7.616770 -2.339983 100.000000 2
-9.894696 7.629663 -2.340019 100.000000 2
-9.900959 7.642031 -2.340054 100.000000 2
-9.907530 7.654866 -2.340090 100.000000 2
-9.914159 7.667671 -2.340126 100.000000 2
-9.970735 7.654277 -2.307577 100.000000 2
-9.977361 7.666795 -2.307613 100.000000 2
-9.971629 7.685937 -2.315794 100.000000 2
-9.978399 7.698450 -2.315830 100.000000 2
-9.985224 7.710933 -2.315865 100.000000 2
-9.992106 7.723384 -2.315900 100.000000 2
-11.610256 4.705494 -1.576759 100.000000 2
-11.603220 4.710776 -1.576769 100.000000 2
-11.595949 4.716288 -1.576778 100.000000 2
-11.588964 4.721637 -1.576788 100.000000 2
-11.581747 4.727219 -1.576798 100.000000 2
-11.574813 4.732634 -1.576808 100.000000 2
-11.567905 4.738083 -1.576818 100.000000 2
-11.543406 4.721519 -1.593032 100.000000 2
-11.536704 4.726908 -1.593042 100.000000 2
-11.529769 4.732536 -1.593052 100.000000 2
-11.495978 4.705502 -1.617370 100.000000 2
-11.489204 4.711106 -1.617380 100.000000 2
-11.482196 4.716958 -1.617391 100.000000 2
-11.448143 4.690303 -1.641710 100.000000 2
-11.441300 4.696124 -1.641721 100.000000 2
-11.434484 4.701976 -1.641732 100.000000 2
-11.427695 4.707859 -1.641743 100.000000 2
-11.318465 4.653998 -1.706626 100.000000 2
-11.311459 4.660408 -1.706638 100.000000 2
-11.304751 4.666601 -1.706650 100.000000 2
-11.298070 4.672823 -1.706662 100.000000 2
-11.001258 4.449323 -1.917443 100.000000 2
-10.993634 4.456871 -1.917458 100.000000 2
-11.006010 4.484389 -1.901264 100.000000 2
-10.998836 4.491615 -1.901278 100.000000 2
-10.991397 4.499173 -1.901293 100.000000 2
-10.974177 4.496618 -1.909412 100.000000 2
-10.966759 4.504284 -1.909427 100.000000 2
-10.939284 4.492166 -1.925651 100.000000 2
-9.467221 5.222769 -2.463584 100.000000 2
-9.118557 5.525816 -2.618720 100.000000 2
-9.226340 5.875218 -2.530178 100.000000 2
-9.225178 5.888051 -2.530210 100.000000 2
-9.224114 5.900276 -2.530240 100.000000 2
-9.223043 5.913117 -2.530272 100.000000 2
-9.222067 5.925350 -2.530302 100.000000 2
-9.221088 5.938197 -2.530334 100.000000 2
-9.178020 5.947388 -2.554738 100.000000 2
-9.177164 5.959778 -2.554769 100.000000 2
-9.176312 5.972790 -2.554801 100.000000 2
-8.408783 6.280436 -2.994442 100.000000 2
-8.409098 6.295508 -2.994481 100.000000 2
-8.409486 6.311332 -2.994521 100.000000 2
-8.820002 6.357786 -2.758952 100.000000 2
-9.347488 6.448876 -2.458480 100.000000 2
-9.348426 6.461261 -2.458512 100.000000 2
-9.349410 6.473642 -2.458544 100.000000 2
-9.350439 6.486020 -2.458576 100.000000 2
-9.351513 6.498393 -2.458608 100.000000 2
-9.070348 6.842525 -2.646427 100.000000 2
-9.072733 6.855922 -2.646462 100.000000 2
-9.075284 6.869948 -2.646499 100.000000 2
-9.077889 6.883965 -2.646536 100.000000 2
-9.080548 6.897971 -2.646573 100.000000 2
-9.409100 6.954533 -2.467929 100.000000 2
-9.425757 6.964107 -2.459827 100.000000 2
-9.428854 6.977353 -2.459862 100.000000 2
-9.571861 6.969449 -2.378572 100.000000 2
-9.574841 6.981559 -2.378604 100.000000 2
-9.578007 6.994206 -2.378638 100.000000 2
-9.138424 7.255893 -2.663781 100.000000 2
-9.142698 7.270290 -2.663820 100.000000 2
-9.147029 7.284669 -2.663858 100.000000 2
-9.151418 7.299031 -2.663897 100.000000 2
-9.155864 7.313374 -2.663936 100.000000 2
-9.160368 7.327701 -2.663975 100.000000 2
-9.164930 7.342008 -2.664014 100.000000 2
-9.948650 7.711579 -2.331851 100.000000 2
-9.955541 7.724172 -2.331887 100.000000 2
-9.962489 7.736733 -2.331922 100.000000 2
-9.969764 7.749744 -2.331959 100.000000 2
-11.570855 4.696027 -1.570442 100.000000 2
-11.563579 4.701417 -1.570444 100.000000 2
-11.556330 4.706843 -1.570446 100.000000 2
-11.549364 4.712108 -1.570448 100.000000 2
-11.542167 4.717603 -1.570450 100.000000 2
-11.535253 4.722936 -1.570453 100.000000 2
-11.528109 4.728500 -1.570455 100.000000 2
-11.512495 4.722822 -1.578549 100.000000 2
-11.505606 4.728294 -1.578552 100.000000 2
-11.498742 4.733798 -1.578555 100.000000 2
-11.456539 4.695318 -1.610922 100.000000 2
-11.431609 4.679233 -1.627108 100.000000 2
-11.424516 4.685086 -1.627112 100.000000 2
-11.417711 4.690754 -1.627115 100.000000 2
-11.410672 4.696672 -1.627119 100.000000 2
-11.403921 4.702403 -1.627123 100.000000 2
-11.397195 4.708164 -1.627127 100.000000 2
-11.309414 4.634834 -1.691866 100.000000 2
-11.302383 4.641024 -1.691870 100.000000 2
-11.269518 4.632519 -1.708062 100.000000 2
-11.262477 4.638890 -1.708067 100.000000 2
-11.255735 4.645046 -1.708072 100.000000 2
-11.248752 4.651480 -1.708078 100.000000 2
-11.174659 4.585449 -1.764724 100.000000 2
-11.167685 4.591988 -1.764729 100.000000 2
-11.160740 4.598558 -1.764735 100.000000 2
-11.153547 4.605423 -1.764741 100.000000 2
-11.093384 4.585150 -1.797126 100.000000 2
-11.086689 4.591768 -1.797133 100.000000 2
-11.079744 4.598691 -1.797139 100.000000 2
-11.072829 4.605644 -1.797146 100.000000 2
-10.955473 4.503519 -1.886164 100.000000 2
-10.948145 4.511014 -1.886172 100.000000 2
-10.941142 4.518240 -1.886179 100.000000 2
-10.954267 4.545324 -1.870003 100.000000 2
-10.947406 4.552524 -1.870010 100.000000 2
-10.940576 4.559753 -1.870018 100.000000 2
-10.933494 4.567313 -1.870026 100.000000 2
-10.926725 4.574600 -1.870034 100.000000 2
-10.919988 4.581915 -1.870041 100.000000 2
-10.913281 4.589258 -1.870050 100.000000 2
-10.906605 4.596630 -1.870058 100.000000 2
-9.412421 5.197288 -2.462993 100.000000 2
-9.408993 5.208660 -2.463017 100.000000 2
-9.405604 5.220045 -2.463042 100.000000 2
-9.402088 5.232011 -2.463068 100.000000 2
-9.398781 5.243419 -2.463092 100.000000 2
-9.395351 5.255411 -2.463118 100.000000 2
-9.392126 5.266843 -2.463143 100.000000 2
-8.979367 5.483148 -2.666398 100.000000 2
-8.976940 5.496029 -2.666428 100.000000 2
-9.038602 5.744456 -2.610244 100.000000 2
-9.051095 5.758798 -2.602168 100.000000 2
-9.049558 5.772060 -2.602201 100.000000 2
-9.172917 5.811628 -2.529297 100.000000 2
-9.171635 5.823833 -2.529327 100.000000 2
-9.170396 5.836041 -2.529358 100.000000 2
-9.169140 5.848865 -2.529389 100.000000 2
-9.167988 5.861083 -2.529420 100.000000 2
-9.166879 5.873304 -2.529450 100.000000 2
-9.165760 5.886141 -2.529482 100.000000 2
-9.164738 5.898370 -2.529513 100.000000 2
-9.191834 5.913452 -2.513328 100.000000 2
-9.190907 5.925590 -2.513359 100.000000 2
-9.189979 5.938338 -2.513391 100.000000 2
-9.189140 5.950482 -2.513422 100.000000 2
-9.188342 5.962629 -2.513453 100.000000 2
-9.207748 6.478322 -2.506716 100.000000 2
-9.208846 6.491005 -2.506752 100.000000 2
-9.209991 6.503684 -2.506787 100.000000 2
-9.211182 6.516358 -2.506823 100.000000 2
-9.212419 6.529028 -2.506859 100.000000 2
-9.199673 6.543119 -2.515010 100.000000 2
-9.201010 6.555831 -2.515045 100.000000 2
-9.501767 6.905150 -2.378181 100.000000 2
-9.504553 6.917305 -2.378218 100.000000 2
-9.521116 6.926243 -2.370134 100.000000 2
-9.524115 6.938873 -2.370173 100.000000 2
-9.527032 6.950943 -2.370210 100.000000 2
-9.529994 6.963001 -2.370246 100.000000 2
-9.546681 6.971628 -2.362162 100.000000 2
-9.549862 6.984155 -2.362201 100.000000 2
-9.552951 6.996125 -2.362238 100.000000 2
-9.434947 7.150070 -2.451933 100.000000 2
-9.438846 7.163043 -2.451974 100.000000 2
-9.442797 7.176001 -2.452015 100.000000 2
-9.512782 7.210345 -2.419684 100.000000 2
-9.516922 7.223006 -2.419724 100.000000 2
-9.521113 7.235650 -2.419765 100.000000 2
-9.525355 7.248277 -2.419806 100.000000 2
-9.706916 7.255075 -2.322508 100.000000 2
-9.711422 7.267473 -2.322549 100.000000 2
-9.715789 7.279337 -2.322587 100.000000 2
-9.720396 7.291697 -2.322628 100.000000 2
-9.725056 7.304038 -2.322669 100.000000 2
-9.971126 7.697976 -2.291587 100.000000 2
-9.978283 7.710673 -2.291633 100.000000 2
-9.985231 7.722867 -2.291677 100.000000 2
-11.478062 4.680170 -1.595867 100.000000 2
-11.497047 4.719041 -1.571596 100.000000 2
-11.489917 4.724623 -1.571588 100.000000 2
-11.483068 4.730039 -1.571581 100.000000 2
-11.476244 4.735487 -1.571575 100.000000 2
-11.433883 4.697101 -1.603919 100.000000 2
-11.427163 4.702569 -1.603912 100.000000 2
-11.420211 4.708280 -1.603906 100.000000 2
-11.404243 4.703182 -1.611987 100.000000 2
-11.388459 4.697984 -1.620068 100.000000 2
-11.381486 4.703878 -1.620062 100.000000 2
-11.137681 4.679058 -1.725107 100.000000 2
-11.131144 4.685607 -1.725104 100.000000 2
-11.124636 4.692184 -1.725100 100.000000 2
-11.118415 4.698525 -1.725097 100.000000 2
-10.613030 4.287384 -2.097069 100.000000 2
-10.604793 4.296221 -2.097065 100.000000 2
-10.596921 4.304739 -2.097062 100.000000 2
-10.589086 4.313289 -2.097059 100.000000 2
-9.930224 4.303538 -2.396260 100.000000 2
-9.922717 4.314404 -2.396263 100.000000 2
-9.915577 4.324827 -2.396266 100.000000 2
-9.908478 4.335276 -2.396269 100.000000 2
-9.901419 4.345753 -2.396272 100.000000 2
-9.167246 5.792306 -2.511281 100.000000 2
-8.922874 6.325393 -2.641926 100.000000 2
-8.909338 6.339581 -2.650055 100.000000 2
-8.909923 6.352578 -2.650084 100.000000 2
-9.203434 6.503487 -2.488497 100.000000 2
-9.204647 6.516056 -2.488527 100.000000 2
-9.205906 6.528620 -2.488558 100.000000 2
-9.207211 6.541179 -2.488588 100.000000 2
-9.208563 6.553734 -2.488619 100.000000 2
-9.482004 6.903634 -2.368079 100.000000 2
-9.384011 6.979320 -2.433058 100.000000 2
-9.670037 7.244266 -2.320507 100.000000 2
-9.674336 7.256154 -2.320544 100.000000 2
-9.678873 7.268540 -2.320582 100.000000 2
-9.683270 7.280393 -2.320620 100.000000 2
-9.687908 7.292742 -2.320659 100.000000 2
-9.792192 7.632380 -2.346074 100.000000 2
-9.798560 7.644764 -2.346117 100.000000 2
-9.805240 7.657614 -2.346163 100.000000 2
-9.937402 7.635864 -2.273257 100.000000 2
-9.944040 7.648085 -2.273301 100.000000 2
-11.582911 4.692637 -1.547744 100.000000 2
-11.575410 4.697903 -1.547733 100.000000 2
-11.568194 4.703023 -1.547722 100.000000 2
-11.560746 4.708362 -1.547711 100.000000 2
-11.553580 4.713554 -1.547701 100.000000 2
-11.546440 4.718780 -1.547691 100.000000 2
-11.539326 4.724041 -1.547681 100.000000 2
-11.501205 4.717436 -1.563827 100.000000 2
-10.934778 4.522704 -1.862800 100.000000 2
-10.927865 4.529771 -1.862795 100.000000 2
-10.930855 4.546968 -1.854702 100.000000 2
-10.924044 4.554051 -1.854697 100.000000 2
-10.916981 4.561460 -1.854691 100.000000 2
-10.910230 4.568602 -1.854686 100.000000 2
-10.903510 4.575772 -1.854681 100.000000 2
-10.896541 4.583270 -1.854676 100.000000 2
-10.889882 4.590497 -1.854671 100.000000 2
-10.883253 4.597752 -1.854666 100.000000 2
-8.968559 5.482670 -2.640005 100.000000 2
-8.966046 5.496044 -2.640025 100.000000 2
-8.963698 5.508790 -2.640043 100.000000 2
-8.961395 5.521543 -2.640062 100.000000 2
-8.959135 5.534305 -2.640081 100.000000 2
-9.145121 5.843020 -2.511074 100.000000 2
-9.143927 5.855746 -2.511096 100.000000 2
-9.142832 5.867870 -2.511117 100.000000 2
-9.141780 5.879997 -2.511138 100.000000 2
-8.396819 6.286588 -2.932825 100.000000 2
-8.397237 6.301313 -2.932855 100.000000 2
-8.397730 6.316773 -2.932888 100.000000 2
-8.398280 6.332230 -2.932920 100.000000 2
-9.199150 6.478724 -2.479961 100.000000 2
-9.220675 6.552264 -2.472035 100.000000 2
-9.222147 6.565301 -2.472065 100.000000 2
-9.223599 6.577740 -2.472094 100.000000 2
-9.225097 6.590174 -2.472123 100.000000 2
-9.226640 6.602602 -2.472153 100.000000 2
-9.228306 6.615616 -2.472183 100.000000 2
-9.229942 6.628032 -2.472213 100.000000 2
-9.310621 6.692766 -2.431900 100.000000 2
-9.312632 6.705457 -2.431931 100.000000 2
-9.314597 6.717564 -2.431961 100.000000 2
-9.330622 6.727920 -2.423893 100.000000 2
-9.378775 6.757733 -2.399687 100.000000 2
-9.381035 6.770163 -2.399718 100.000000 2
-9.383236 6.782019 -2.399748 100.000000 2
-9.385588 6.794431 -2.399780 100.000000 2
-9.488646 6.874489 -2.351427 100.000000 2
-9.491353 6.886497 -2.351459 100.000000 2
-9.494106 6.898493 -2.351491 100.000000 2
-9.519410 6.943541 -2.343519 100.000000 2
-9.522382 6.955430 -2.343551 100.000000 2
-9.525399 6.967307 -2.343584 100.000000 2
-9.528601 6.979711 -2.343618 100.000000 2
-9.531712 6.991565 -2.343651 100.000000 2
-9.535012 7.003944 -2.343685 100.000000 2
-9.538215 7.015772 -2.343718 100.000000 2
-9.500216 7.229430 -2.400981 100.000000 2
-9.504473 7.241932 -2.401019 100.000000 2
-9.508967 7.254961 -2.401058 100.000000 2
-9.672726 7.252220 -2.312039 100.000000 2
-9.690498 7.259667 -2.303970 100.000000 2
-9.694873 7.271407 -2.304007 100.000000 2
-9.699488 7.283639 -2.304044 100.000000 2
-9.730505 7.285769 -2.287868 100.000000 2
-9.734984 7.297348 -2.287904 100.000000 2
-9.739708 7.309412 -2.287942 100.000000 2
-9.809326 7.632525 -2.329466 100.000000 2
-9.936475 7.660746 -2.272943 100.000000 2
-9.943240 7.672897 -2.272987 100.000000 2
-9.950062 7.685016 -2.273031 100.000000 2
-9.957204 7.697568 -2.273077 100.000000 2
-11.529229 4.685780 -1.545284 100.000000 2
-11.521767 4.690977 -1.545264 100.000000 2
-11.514332 4.696211 -1.545244 100.000000 2
-11.506923 4.701482 -1.545225 100.000000 2
-11.499794 4.706607 -1.545206 100.000000 2
-11.492438 4.711952 -1.545187 100.000000 2
-11.485361 4.717148 -1.545168 100.000000 2
-11.478310 4.722379 -1.545150 100.000000 2
-11.471284 4.727644 -1.545132 100.000000 2
-11.261388 4.624049 -1.666217 100.000000 2
-11.254153 4.630147 -1.666200 100.000000 2
-11.221565 4.620852 -1.682334 100.000000 2
-11.214583 4.626904 -1.682318 100.000000 2
-11.207629 4.632987 -1.682301 100.000000 2
-11.200702 4.639101 -1.682284 100.000000 2
-11.193803 4.645247 -1.682268 100.000000 2
-11.177458 4.640955 -1.690336 100.000000 2
-11.170568 4.647206 -1.690320 100.000000 2
-11.154137 4.643105 -1.698387 100.000000 2
-11.147257 4.649462 -1.698371 100.000000 2
-10.870164 4.367259 -1.924689 100.000000 2
-10.862037 4.374903 -1.924671 100.000000 2
-10.854255 4.382289 -1.924653 100.000000 2
-10.846505 4.389708 -1.924636 100.000000 2
-10.838788 4.397161 -1.924618 100.000000 2
-10.919775 4.495686 -1.851855 100.000000 2
-10.912520 4.502819 -1.851839 100.000000 2
-10.905294 4.509984 -1.851823 100.000000 2
-10.898101 4.517180 -1.851807 100.000000 2
-10.891225 4.524118 -1.851792 100.000000 2
-10.884094 4.531376 -1.851777 100.000000 2
-10.876993 4.538665 -1.851761 100.000000 2
-10.870208 4.545691 -1.851747 100.000000 2
-10.476487 4.201494 -2.150751 100.000000 2
-10.467954 4.210560 -2.150733 100.000000 2
-10.459799 4.219297 -2.150716 100.000000 2
-10.451680 4.228069 -2.150699 100.000000 2
-10.443263 4.237242 -2.150682 100.000000 2
-10.435221 4.246084 -2.150666 100.000000 2
-10.427215 4.254958 -2.150649 100.000000 2
-9.099978 5.890187 -2.498023 100.000000 2
-9.099008 5.902829 -2.498039 100.000000 2
-9.098127 5.914872 -2.498054 100.000000 2
-9.097247 5.927520 -2.498070 100.000000 2
-8.330861 6.345085 -2.935153 100.000000 2
-8.331566 6.360536 -2.935179 100.000000 2
-8.332327 6.375985 -2.935206 100.000000 2
-9.222368 6.527162 -2.434377 100.000000 2
-9.335976 6.526717 -2.369719 100.000000 2
-9.337336 6.538491 -2.369742 100.000000 2
-9.240680 6.562611 -2.426365 100.000000 2
-9.242173 6.574733 -2.426389 100.000000 2
-9.243710 6.586850 -2.426413 100.000000 2
-9.231294 6.600799 -2.434523 100.000000 2
-9.469158 6.882545 -2.330086 100.000000 2
-9.471950 6.894367 -2.330115 100.000000 2
-9.474787 6.906177 -2.330144 100.000000 2
-9.532516 6.904547 -2.297816 100.000000 2
-9.535524 6.916651 -2.297846 100.000000 2
-9.538445 6.928218 -2.297874 100.000000 2
-9.541411 6.939773 -2.297903 100.000000 2
-9.489790 6.965594 -2.330291 100.000000 2
-9.493042 6.977869 -2.330322 100.000000 2
-9.496199 6.989598 -2.330352 100.000000 2
-9.499548 7.001846 -2.330383 100.000000 2
-9.474443 7.251121 -2.387619 100.000000 2
-9.788118 7.616461 -2.307999 100.000000 2
-9.794749 7.628975 -2.308043 100.000000 2
-9.813873 7.634791 -2.299988 100.000000 2
-9.820586 7.647189 -2.300032 100.000000 2
-9.827356 7.659556 -2.300076 100.000000 2
-9.834182 7.671892 -2.300121 100.000000 2
-9.890313 7.656625 -2.267766 100.000000 2
-9.897125 7.668676 -2.267810 100.000000 2
-9.916241 7.673692 -2.259754 100.000000 2
-9.923396 7.686084 -2.259800 100.000000 2
-9.930341 7.697984 -2.259844 100.000000 2
-9.937610 7.710310 -2.259890 100.000000 2
-9.944937 7.722601 -2.259936 100.000000 2
-9.952047 7.734403 -2.259981 100.000000 2
-11.372557 4.646723 -1.604257 100.000000 2
-11.365195 4.652342 -1.604233 100.000000 2
-11.357860 4.657996 -1.604209 100.000000 2
-11.350813 4.663483 -1.604187 100.000000 2
-11.284950 4.625674 -1.644589 100.000000 2
-11.277752 4.631504 -1.644566 100.000000 2
-11.270581 4.637368 -1.644543 100.000000 2
-11.263439 4.643265 -1.644520 100.000000 2
-11.256587 4.648975 -1.644498 100.000000 2
-11.249499 4.654939 -1.644476 100.000000 2
-11.214906 4.628765 -1.668733 100.000000 2
-11.207989 4.634695 -1.668711 100.000000 2
-11.182282 4.619610 -1.684874 100.000000 2
-11.175323 4.625689 -1.684852 100.000000 2
-11.168393 4.631799 -1.684831 100.000000 2
-11.164083 4.654582 -1.676695 100.000000 2
-11.157283 4.660742 -1.676674 100.000000 2
-11.150512 4.666934 -1.676652 100.000000 2
-11.143769 4.673156 -1.676631 100.000000 2
-11.137054 4.679409 -1.676610 100.000000 2
-10.919270 4.477358 -1.846491 100.000000 2
-10.911961 4.484348 -1.846468 100.000000 2
-10.904683 4.491370 -1.846446 100.000000 2
-10.907315 4.508506 -1.838332 100.000000 2
-10.899856 4.515831 -1.838309 100.000000 2
-10.892715 4.522905 -1.838287 100.000000 2
-10.885605 4.530012 -1.838265 100.000000 2
-10.878526 4.537149 -1.838244 100.000000 2
-10.871760 4.544029 -1.838223 100.000000 2
-10.864743 4.551226 -1.838202 100.000000 2
-10.857756 4.558454 -1.838180 100.000000 2
-10.820407 4.536220 -1.862430 100.000000 2
-10.813356 4.543641 -1.862409 100.000000 2
-10.538639 4.299997 -2.072722 100.000000 2
-10.530561 4.308646 -2.072698 100.000000 2
-8.984609 5.714380 -2.555965 100.000000 2
-8.983016 5.727323 -2.555968 100.000000 2
-8.981543 5.739654 -2.555971 100.000000 2
-8.980113 5.751991 -2.555974 100.000000 2
-8.978659 5.764950 -2.555977 100.000000 2
-8.977317 5.777296 -2.555981 100.000000 2
-8.976019 5.789647 -2.555984 100.000000 2
-8.988753 5.804024 -2.547907 100.000000 2
-8.987548 5.816335 -2.547911 100.000000 2
-9.070695 5.837082 -2.499427 100.000000 2
-9.069605 5.849107 -2.499431 100.000000 2
-9.265535 5.878001 -2.386296 100.000000 2
-9.264539 5.889915 -2.386300 100.000000 2
-9.263631 5.901265 -2.386304 100.000000 2
-9.262764 5.912618 -2.386309 100.000000 2
-9.261895 5.924542 -2.386314 100.000000 2
-9.261108 5.935901 -2.386319 100.000000 2
-9.133494 5.939705 -2.459058 100.000000 2
-9.132761 5.951511 -2.459064 100.000000 2
-9.132036 5.963910 -2.459069 100.000000 2
-9.138592 6.440181 -2.459423 100.000000 2
-9.139658 6.452555 -2.459435 100.000000 2
-9.140769 6.464926 -2.459448 100.000000 2
-9.141926 6.477292 -2.459461 100.000000 2
-9.143128 6.489655 -2.459474 100.000000 2
-9.270799 6.489096 -2.386737 100.000000 2
-9.272044 6.500987 -2.386750 100.000000 2
-9.273331 6.512873 -2.386763 100.000000 2
-9.274663 6.524754 -2.386776 100.000000 2
-9.262013 6.538271 -2.394873 100.000000 2
-9.249419 6.551885 -2.402971 100.000000 2
-9.054801 6.588860 -2.516157 100.000000 2
-9.056413 6.601539 -2.516171 100.000000 2
-9.058070 6.614214 -2.516186 100.000000 2
-9.059775 6.626881 -2.516202 100.000000 2
-8.991763 6.895865 -2.581213 100.000000 2
-9.008310 6.905830 -2.573147 100.000000 2
-9.011217 6.919289 -2.573167 100.000000 2
-9.532518 6.915502 -2.282259 100.000000 2
-9.535457 6.926952 -2.282277 100.000000 2
-9.538441 6.938391 -2.282296 100.000000 2
-9.541468 6.949819 -2.282316 100.000000 2
-9.544680 6.961753 -2.282336 100.000000 2
-9.547798 6.973156 -2.282356 100.000000 2
-9.419544 7.182423 -2.387775 100.000000 2
-9.423691 7.194843 -2.387800 100.000000 2
-9.755905 7.672214 -2.324297 100.000000 2
-9.762815 7.684723 -2.324332 100.000000 2
-9.769782 7.697199 -2.324367 100.000000 2
-9.899666 7.640169 -2.243464 100.000000 2
-9.918683 7.645024 -2.235403 100.000000 2
-9.925468 7.656796 -2.235437 100.000000 2
-9.932571 7.668988 -2.235472 100.000000 2
-9.939464 7.680697 -2.235506 100.000000 2
-9.946679 7.692822 -2.235542 100.000000 2
-9.953952 7.704914 -2.235577 100.000000 2
-9.961008 7.716525 -2.235612 100.000000 2
-11.539732 4.703128 -1.516890 100.000000 2
-11.532154 4.708187 -1.516862 100.000000 2
-11.524854 4.713115 -1.516835 100.000000 2
-11.517328 4.718252 -1.516808 100.000000 2
-11.510079 4.723255 -1.516781 100.000000 2
-11.502856 4.728295 -1.516755 100.000000 2
-11.487477 4.721875 -1.524830 100.000000 2
-11.472009 4.715575 -1.532905 100.000000 2
-11.464747 4.720807 -1.532879 100.000000 2
-11.328037 4.629217 -1.621829 100.000000 2
-11.320605 4.634971 -1.621802 100.000000 2
-11.313465 4.640554 -1.621776 100.000000 2
-11.306089 4.646379 -1.621749 100.000000 2
-11.299003 4.652030 -1.621723 100.000000 2
-11.264995 4.625065 -1.645994 100.000000 2
-11.257809 4.630909 -1.645968 100.000000 2
-11.250650 4.636787 -1.645942 100.000000 2
-10.927584 4.431565 -1.856190 100.000000 2
-10.919789 4.438722 -1.856162 100.000000 2
-10.912027 4.445915 -1.856133 100.000000 2
-10.904298 4.453142 -1.856105 100.000000 2
-10.896896 4.460125 -1.856079 100.000000 2
-10.889232 4.467420 -1.856051 100.000000 2
-10.891706 4.484611 -1.847929 100.000000 2
-10.795727 4.400747 -1.920765 100.000000 2
-10.788098 4.408203 -1.920737 100.000000 2
-10.755073 4.421146 -1.928749 100.000000 2
-10.747534 4.428779 -1.928722 100.000000 2
-10.740328 4.436137 -1.928696 100.000000 2
-10.732854 4.443834 -1.928669 100.000000 2
-10.521339 4.256542 -2.090533 100.000000 2
-10.513413 4.264846 -2.090505 100.000000 2
-10.505194 4.273532 -2.090475 100.000000 2
-10.497340 4.281904 -2.090447 100.000000 2
-8.314030 5.196063 -2.977190 100.000000 2
-8.324494 5.213764 -2.969098 100.000000 2
-8.307454 5.225286 -2.977171 100.000000 2
-9.069592 5.818205 -2.492068 100.000000 2
-9.068446 5.830176 -2.492066 100.000000 2
-9.067286 5.842750 -2.492064 100.000000 2
-9.066225 5.854729 -2.492062 100.000000 2
-9.065205 5.866711 -2.492061 100.000000 2
-9.064180 5.879296 -2.492059 100.000000 2
-9.063247 5.891286 -2.492058 100.000000 2
-9.272783 5.930429 -2.370834 100.000000 2
-9.272027 5.941692 -2.370833 100.000000 2
-9.271275 5.953520 -2.370832 100.000000 2
-9.270599 5.964788 -2.370832 100.000000 2
-9.269932 5.976622 -2.370831 100.000000 2
-9.142410 5.981414 -2.443564 100.000000 2
-8.350969 6.328426 -2.896192 100.000000 2
-9.295605 6.476880 -2.362888 100.000000 2
-9.296815 6.488618 -2.362895 100.000000 2
-9.298067 6.500352 -2.362902 100.000000 2
-9.299363 6.512082 -2.362909 100.000000 2
-9.244592 6.530295 -2.395245 100.000000 2
-9.245997 6.542220 -2.395253 100.000000 2
-9.247446 6.554140 -2.395260 100.000000 2
-9.249011 6.566621 -2.395269 100.000000 2
-9.194542 6.585848 -2.427606 100.000000 2
-9.182157 6.599836 -2.435697 100.000000 2
-9.183818 6.611989 -2.435705 100.000000 2
-9.185606 6.624713 -2.435715 100.000000 2
-9.312484 6.704158 -2.371130 100.000000 2
-8.993248 6.841477 -2.565187 100.000000 2
-9.009643 6.851553 -2.557116 100.000000 2
-9.012352 6.864942 -2.557129 100.000000 2
-9.015113 6.878322 -2.557142 100.000000 2
-9.017924 6.891690 -2.557155 100.000000 2
-9.020656 6.904441 -2.557168 100.000000 2
-9.023568 6.917788 -2.557182 100.000000 2
-9.026531 6.931124 -2.557195 100.000000 2
-9.505749 6.872424 -2.282410 100.000000 2
-9.508534 6.883912 -2.282422 100.000000 2
-9.525069 6.891993 -2.274351 100.000000 2
-9.527929 6.903408 -2.274364 100.000000 2
-9.530966 6.915329 -2.274378 100.000000 2
-9.533915 6.926721 -2.274392 100.000000 2
-9.536909 6.938102 -2.274405 100.000000 2
-9.539946 6.949471 -2.274419 100.000000 2
-9.543168 6.961343 -2.274433 100.000000 2
-9.546295 6.972688 -2.274447 100.000000 2
-9.885938 7.642720 -2.243324 100.000000 2
-9.892725 7.654564 -2.243352 100.000000 2
-9.899567 7.666377 -2.243380 100.000000 2
-9.906728 7.678611 -2.243410 100.000000 2
-9.913679 7.690361 -2.243438 100.000000 2
-11.476811 4.682035 -1.534481 100.000000 2
-11.469179 4.687145 -1.534454 100.000000 2
-11.461573 4.692295 -1.534427 100.000000 2
-11.454247 4.697311 -1.534401 100.000000 2
-11.187774 4.634665 -1.655996 100.000000 2
-11.180682 4.640624 -1.655968 100.000000 2
-10.806177 4.370119 -1.916073 100.000000 2
-10.798148 4.377588 -1.916040 100.000000 2
-10.790153 4.385094 -1.916007 100.000000 2
-10.782193 4.392635 -1.915974 100.000000 2
-10.774571 4.399921 -1.915943 100.000000 2
-10.864894 4.508561 -1.834552 100.000000 2
-10.857778 4.515486 -1.834522 100.000000 2
-10.850692 4.522441 -1.834493 100.000000 2
-10.564945 4.250167 -2.062249 100.000000 2
-10.556372 4.258730 -2.062212 100.000000 2
-10.548167 4.267001 -2.062177 100.000000 2
-10.539998 4.275308 -2.062142 100.000000 2
-10.531865 4.283650 -2.062108 100.000000 2
-10.524092 4.291692 -2.062074 100.000000 2
-10.505819 4.290393 -2.070173 100.000000 2
-9.102490 5.815892 -2.454456 100.000000 2
-9.101364 5.827568 -2.454429 100.000000 2
-9.100226 5.839833 -2.454400 100.000000 2
-9.099183 5.851517 -2.454373 100.000000 2
-9.252777 5.876536 -2.365159 100.000000 2
-9.251862 5.887688 -2.365134 100.000000 2
-9.250987 5.898843 -2.365108 100.000000 2
-9.250110 5.910560 -2.365081 100.000000 2
-9.249314 5.921721 -2.365056 100.000000 2
-9.248557 5.932885 -2.365031 100.000000 2
-8.327584 6.302148 -2.891083 100.000000 2
-9.198089 6.434253 -2.396403 100.000000 2
-9.227269 6.443516 -2.380175 100.000000 2
-9.228389 6.455315 -2.380152 100.000000 2
-9.257625 6.464261 -2.363925 100.000000 2
-9.274084 6.486105 -2.355778 100.000000 2
-9.220617 6.515876 -2.388142 100.000000 2
-9.297945 6.661600 -2.355457 100.000000 2
-9.319953 6.706299 -2.347274 100.000000 2
-9.322035 6.717757 -2.347254 100.000000 2
-9.486015 6.876333 -2.274050 100.000000 2
-9.488849 6.887699 -2.274031 100.000000 2
-9.491727 6.899053 -2.274014 100.000000 2
-9.494649 6.910396 -2.273996 100.000000 2
-9.497750 6.922243 -2.273977 100.000000 2
-9.500760 6.933563 -2.273960 100.000000 2
-9.503814 6.944871 -2.273942 100.000000 2
-9.506911 6.956168 -2.273925 100.000000 2
-9.510196 6.967965 -2.273907 100.000000 2
-9.513382 6.979237 -2.273890 100.000000 2
-9.516758 6.991008 -2.273872 100.000000 2
-9.520033 7.002254 -2.273855 100.000000 2
-9.523502 7.013998 -2.273838 100.000000 2
-9.526865 7.025218 -2.273821 100.000000 2
-9.530426 7.036935 -2.273803 100.000000 2
-9.146837 7.315125 -2.532727 100.000000 2
-9.151563 7.328362 -2.532709 100.000000 2
-9.156342 7.341581 -2.532691 100.000000 2
-9.148148 7.360243 -2.540769 100.000000 2
-9.153055 7.373475 -2.540752 100.000000 2
-9.615668 7.240085 -2.265419 100.000000 2
-9.620285 7.251937 -2.265404 100.000000 2
-9.624756 7.263277 -2.265389 100.000000 2
-9.629470 7.275090 -2.265374 100.000000 2
-9.946660 7.685437 -2.208231 100.000000 2
-9.953681 7.696770 -2.208222 100.000000 2
-9.961027 7.708504 -2.208213 100.000000 2
-11.421064 7.094855 -1.325874 100.000000 2
-11.436867 7.091107 -1.317780 100.000000 2
-11.442351 7.096923 -1.317779 100.000000 2
-11.437853 7.112656 -1.325871 100.000000 2
-11.410241 4.697131 -1.551778 100.000000 2
-11.402931 4.702418 -1.551753 100.000000 2
-11.395648 4.707742 -1.551728 100.000000 2
-11.388641 4.712917 -1.551704 100.000000 2
-10.903789 4.475439 -1.835810 100.000000 2
-10.896231 4.482476 -1.835782 100.000000 2
-10.898393 4.499779 -1.827621 100.000000 2
-10.890946 4.506840 -1.827593 100.000000 2
-10.883814 4.513661 -1.827566 100.000000 2
-10.876430 4.520787 -1.827538 100.000000 2
-10.869360 4.527671 -1.827511 100.000000 2
-10.852407 4.524569 -1.835615 100.000000 2
-10.825441 4.511611 -1.851851 100.000000 2
-10.818047 4.519002 -1.851822 100.000000 2
-8.927247 5.469676 -2.586443 100.000000 2
-8.938658 5.485180 -2.578306 100.000000 2
-8.936373 5.497438 -2.578279 100.000000 2
-8.934131 5.509703 -2.578254 100.000000 2
-8.931823 5.522590 -2.578226 100.000000 2
-9.168746 5.894935 -2.415386 100.000000 2
-9.167849 5.906960 -2.415363 100.000000 2
-9.167036 5.918416 -2.415342 100.000000 2
-9.138109 5.928055 -2.431534 100.000000 2
-8.955520 6.381563 -2.536118 100.000000 2
-8.956407 6.394365 -2.536098 100.000000 2
-9.189787 6.473837 -2.406296 100.000000 2
-9.191013 6.485781 -2.406278 100.000000 2
-9.192282 6.497721 -2.406260 100.000000 2
-9.193594 6.509656 -2.406242 100.000000 2
-9.194950 6.521587 -2.406225 100.000000 2
-9.196351 6.533512 -2.406207 100.000000 2
-9.550216 6.947255 -2.251680 100.000000 2
-9.553458 6.958887 -2.251667 100.000000 2
-9.556603 6.970002 -2.251654 100.000000 2
-9.559937 6.981609 -2.251642 100.000000 2
-9.563170 6.992698 -2.251629 100.000000 2
-9.566595 7.004279 -2.251616 100.000000 2
-9.425199 7.165066 -2.356794 100.000000 2
-9.442667 7.172629 -2.348683 100.000000 2
-9.244957 7.372545 -2.494349 100.000000 2
-9.751149 7.627672 -2.291610 100.000000 2
-9.757903 7.639902 -2.291604 100.000000 2
-9.764713 7.652101 -2.291597 100.000000 2
-9.771578 7.664269 -2.291591 100.000000 2
-9.778498 7.676405 -2.291584 100.000000 2
-9.785473 7.688511 -2.291579 100.000000 2
-9.792503 7.700584 -2.291573 100.000000 2
-9.940229 7.645412 -2.202496 100.000000 2
-9.947063 7.656784 -2.202491 100.000000 2
-9.954214 7.668561 -2.202486 100.000000 2
-9.961421 7.680304 -2.202482 100.000000 2
-9.968412 7.691580 -2.202477 100.000000 2
-9.939906 7.725824 -2.226763 100.000000 2
-9.947382 7.737634 -2.226758 100.000000 2
-10.859795 4.405258 -1.868332 100.000000 2
-10.851653 4.412539 -1.868291 100.000000 2
-10.843846 4.419587 -1.868253 100.000000 2
-10.836070 4.426670 -1.868213 100.000000 2
-10.493217 4.248803 -2.079958 100.000000 2
-9.116408 5.771281 -2.429928 100.000000 2
-9.115145 5.782745 -2.429881 100.000000 2
-9.113861 5.794787 -2.429831 100.000000 2
-9.112680 5.806261 -2.429784 100.000000 2
-9.111540 5.817738 -2.429736 100.000000 2
-9.110385 5.829793 -2.429687 100.000000 2
-9.109326 5.841278 -2.429640 100.000000 2
-9.108307 5.852767 -2.429593 100.000000 2
-9.107281 5.864834 -2.429543 100.000000 2
-9.007943 5.868719 -2.486336 100.000000 2
-9.270437 5.955972 -2.331786 100.000000 2
-9.269789 5.967444 -2.331739 100.000000 2
-9.269212 5.978373 -2.331695 100.000000 2
-8.338007 6.311744 -2.865993 100.000000 2
-8.338661 6.326629 -2.865934 100.000000 2
-8.339371 6.341512 -2.865876 100.000000 2
-8.849336 6.366733 -2.573620 100.000000 2
-8.850193 6.379745 -2.573569 100.000000 2
-8.851098 6.392754 -2.573519 100.000000 2
-8.852003 6.405140 -2.573471 100.000000 2
-9.308975 6.449837 -2.313604 100.000000 2
-9.310137 6.461164 -2.313561 100.000000 2
-9.311341 6.472488 -2.313517 100.000000 2
-9.312586 6.483807 -2.313474 100.000000 2
-9.313873 6.495122 -2.313431 100.000000 2
-9.315201 6.506432 -2.313388 100.000000 2
-9.190603 6.533510 -2.386323 100.000000 2
-9.178082 6.547075 -2.394387 100.000000 2
-9.179601 6.558882 -2.394342 100.000000 2
-9.181162 6.570683 -2.394297 100.000000 2
-9.182767 6.582478 -2.394252 100.000000 2
-9.184494 6.594829 -2.394206 100.000000 2
-9.236292 6.807322 -2.385297 100.000000 2
-9.261011 6.915140 -2.384903 100.000000 2
-9.264016 6.927188 -2.384859 100.000000 2
-9.470383 6.935543 -2.271221 100.000000 2
-9.473466 6.946787 -2.271180 100.000000 2
-9.476592 6.958020 -2.271140 100.000000 2
-9.547581 6.949798 -2.230596 100.000000 2
-9.550862 6.961243 -2.230555 100.000000 2
-9.554044 6.972178 -2.230516 100.000000 2
-9.557415 6.983597 -2.230475 100.000000 2
-9.560683 6.994507 -2.230436 100.000000 2
-9.475598 7.228014 -2.318876 100.000000 2
-9.480188 7.240255 -2.318834 100.000000 2
-9.701393 7.298318 -2.213154 100.000000 2
-9.706277 7.309613 -2.213115 100.000000 2
-9.787837 7.629707 -2.252632 100.000000 2
-9.794632 7.641546 -2.252594 100.000000 2
-9.801482 7.653355 -2.252557 100.000000 2
-9.808384 7.665133 -2.252520 100.000000 2
-9.815340 7.676879 -2.252482 100.000000 2
-11.277277 4.638561 -1.590256 100.000000 2
-11.144131 4.633621 -1.638961 100.000000 2
-11.136864 4.639473 -1.638916 100.000000 2
-11.129626 4.645360 -1.638871 100.000000 2
-10.765352 4.327599 -1.917113 100.000000 2
-10.831871 4.418851 -1.851520 100.000000 2
-10.823848 4.425966 -1.851466 100.000000 2
-10.815859 4.433118 -1.851412 100.000000 2
-10.808197 4.440041 -1.851360 100.000000 2
-10.800274 4.447268 -1.851306 100.000000 2
-10.725650 4.382210 -1.908589 100.000000 2
-10.717757 4.389543 -1.908535 100.000000 2
-10.777578 4.468352 -1.851149 100.000000 2
-10.770077 4.475449 -1.851096 100.000000 2
-10.501433 4.246221 -2.055657 100.000000 2
-10.492920 4.254572 -2.055595 100.000000 2
-10.484771 4.262638 -2.055535 100.000000 2
-10.476333 4.271065 -2.055473 100.000000 2
-10.478288 4.289055 -2.047225 100.000000 2
-10.470290 4.297185 -2.047165 100.000000 2
-8.978664 5.798022 -2.475394 100.000000 2
-8.991509 5.811612 -2.467185 100.000000 2
-8.990422 5.823292 -2.467110 100.000000 2
-8.989376 5.834975 -2.467035 100.000000 2
-8.988321 5.847247 -2.466956 100.000000 2
-8.987358 5.858938 -2.466881 100.000000 2
-8.986436 5.870632 -2.466805 100.000000 2
-8.985513 5.882914 -2.466726 100.000000 2
-9.237837 5.911367 -2.320372 100.000000 2
-9.237064 5.922729 -2.320299 100.000000 2
-9.236367 5.933551 -2.320229 100.000000 2
-9.235707 5.944376 -2.320160 100.000000 2
-9.235055 5.955745 -2.320087 100.000000 2
-9.065514 5.958410 -2.417518 100.000000 2
-8.302070 6.268194 -2.854066 100.000000 2
-8.302598 6.282981 -2.853973 100.000000 2
-8.303152 6.297061 -2.853884 100.000000 2
-8.303787 6.311843 -2.853791 100.000000 2
-8.304475 6.326623 -2.853697 100.000000 2
-8.305181 6.340696 -2.853609 100.000000 2
-9.231515 6.437036 -2.325161 100.000000 2
-9.232669 6.448416 -2.325090 100.000000 2
-9.247883 6.458243 -2.316908 100.000000 2
-9.249114 6.469564 -2.316838 100.000000 2
-9.278402 6.477575 -2.300547 100.000000 2
-9.279705 6.488784 -2.300477 100.000000 2
-9.281048 6.499988 -2.300407 100.000000 2
-9.282433 6.511187 -2.300337 100.000000 2
-9.269875 6.524238 -2.308377 100.000000 2
-9.271348 6.535477 -2.308307 100.000000 2
-9.189048 6.558468 -2.356887 100.000000 2
-9.190646 6.570004 -2.356816 100.000000 2
-9.206241 6.579471 -2.348637 100.000000 2
-9.207917 6.590944 -2.348566 100.000000 2
-9.195778 6.605122 -2.356598 100.000000 2
-8.959702 6.877500 -2.517330 100.000000 2
-8.976221 6.886724 -2.509153 100.000000 2
-8.979155 6.899622 -2.509074 100.000000 2
-8.982138 6.912510 -2.508995 100.000000 2
-8.985170 6.925386 -2.508917 100.000000 2
-8.988111 6.937665 -2.508842 100.000000 2
-9.469513 6.938035 -2.240873 100.000000 2
-9.472647 6.949040 -2.240806 100.000000 2
-9.475822 6.960033 -2.240740 100.000000 2
-9.479040 6.971014 -2.240673 100.000000 2
-9.055955 7.268810 -2.523079 100.000000 2
-9.060556 7.281972 -2.523000 100.000000 2
-9.392508 7.204046 -2.328592 100.000000 2
-9.396851 7.215857 -2.328521 100.000000 2
-9.401241 7.227652 -2.328451 100.000000 2
-9.405679 7.239428 -2.328381 100.000000 2
-9.410164 7.251187 -2.328311 100.000000 2
-9.564286 7.257051 -2.247080 100.000000 2
-9.595113 7.257813 -2.230837 100.000000 2
-9.612686 7.263338 -2.222684 100.000000 2
-9.643451 7.263684 -2.206443 100.000000 2
-9.661202 7.269376 -2.198290 100.000000 2
-9.665809 7.280109 -2.198227 100.000000 2
-9.670661 7.291289 -2.198161 100.000000 2
-9.675561 7.302449 -2.198095 100.000000 2
-9.680507 7.313588 -2.198030 100.000000 2
-9.685500 7.324706 -2.197964 100.000000 2
-9.789660 7.646269 -2.228571 100.000000 2
-9.796578 7.657814 -2.228505 100.000000 2
-9.803549 7.669327 -2.228439 100.000000 2
-9.822584 7.673378 -2.220298 100.000000 2
-9.829897 7.685211 -2.220230 100.000000 2
-9.836993 7.696573 -2.220165 100.000000 2
-9.844415 7.708338 -2.220098 100.000000 2
-9.899381 7.689453 -2.187734 100.000000 2
-9.918333 7.692792 -2.179597 100.000000 2
-9.925738 7.704174 -2.179532 100.000000 2
-9.933196 7.715520 -2.179468 100.000000 2
-9.940708 7.726832 -2.179404 100.000000 2
-11.252640 4.649689 -1.577935 100.000000 2
-11.244985 4.655155 -1.577891 100.000000 2
-11.237611 4.660477 -1.577848 100.000000 2
-11.230013 4.666021 -1.577804 100.000000 2
-11.222695 4.671418 -1.577761 100.000000 2
-10.686342 4.255631 -1.962835 100.000000 2
-10.774144 4.421612 -1.855922 100.000000 2
-10.803997 4.470351 -1.823044 100.000000 2
-10.796257 4.477384 -1.822989 100.000000 2
-10.788835 4.484190 -1.822935 100.000000 2
-10.781161 4.491295 -1.822879 100.000000 2
-10.773803 4.498170 -1.822825 100.000000 2
-10.766476 4.505078 -1.822771 100.000000 2
-10.489036 4.265017 -2.035875 100.000000 2
-10.480647 4.273219 -2.035810 100.000000 2
-10.472295 4.281460 -2.035746 100.000000 2
-10.463980 4.289738 -2.035681 100.000000 2
