# .PCD v.7 - Point Cloud Data file format
VERSION .7
FIELDS x y z intensity
SIZE 4 4 4 4
TYPE F F F F
COUNT 1 1 1 1
WIDTH 1205
HEIGHT 1
POINTS 1205
DATA ascii
3.187185 -1.647061 -2.147543 159.000000
3.217450 -1.652505 -2.163813 159.000000
3.223966 -1.642608 -2.163882 159.000000
3.230442 -1.632684 -2.163953 159.000000
3.236878 -1.622735 -2.164022 162.000000
3.231406 -1.605127 -2.155992 162.000000
3.237731 -1.595173 -2.156062 171.000000
3.244017 -1.585195 -2.156132 176.000000
3.250263 -1.575191 -2.156202 178.000000
3.232492 -1.550280 -2.140069 152.000000
3.238598 -1.540323 -2.140139 162.000000
3.244401 -1.530777 -2.140206 166.000000
3.250428 -1.520772 -2.140276 166.000000
3.256416 -1.510743 -2.140346 159.000000
3.262105 -1.501128 -2.140413 150.000000
3.315283 -1.465326 -2.156969 152.000000
3.433139 0.160868 -2.020940 150.000000
3.432445 0.170681 -2.021001 157.000000
3.431751 0.180025 -2.021059 159.000000
3.430987 0.189833 -2.021120 159.000000
3.430226 0.199172 -2.021178 157.000000
3.429392 0.208975 -2.021240 152.000000
3.068285 1.132495 -1.969726 154.000000
3.063628 1.141770 -1.969779 162.000000
3.058728 1.151429 -1.969835 164.000000
3.053788 1.161067 -1.969890 164.000000
3.048807 1.170685 -1.969945 162.000000
3.043787 1.180281 -1.970000 157.000000
2.977065 -1.712275 -2.067780 153.000000
2.984118 -1.702993 -2.067841 162.000000
2.979866 -1.685181 -2.059805 155.000000
2.986804 -1.675888 -2.059866 167.000000
2.993704 -1.666566 -2.059927 174.000000
3.000565 -1.657215 -2.059988 177.000000
3.007387 -1.647836 -2.060049 177.000000
3.013887 -1.638821 -2.060108 172.000000
3.020631 -1.629385 -2.060169 165.000000
3.027336 -1.619922 -2.060231 155.000000
3.079880 -1.643317 -2.092687 191.000000
3.086641 -1.633605 -2.092750 174.000000
3.093083 -1.624272 -2.092810 158.000000
3.157956 -1.654399 -2.133375 177.000000
3.164479 -1.644779 -2.133437 177.000000
3.170965 -1.635133 -2.133499 172.000000
3.177690 -1.625039 -2.133564 158.000000
3.278219 -1.677650 -2.198438 155.000000
3.508965 -1.814634 -2.352436 155.000000
3.516124 -1.803603 -2.352507 158.000000
3.179363 -1.570797 -2.117611 155.000000
3.185552 -1.561092 -2.117674 160.000000
3.191701 -1.551362 -2.117736 162.000000
3.197811 -1.541607 -2.117799 160.000000
3.203882 -1.531828 -2.117862 153.000000
3.221921 -1.529431 -2.126028 167.000000
3.227682 -1.519985 -2.126089 158.000000
3.414196 0.164510 -2.005903 151.000000
3.413523 0.173757 -2.005956 160.000000
3.412781 0.183463 -2.006011 167.000000
3.412042 0.192705 -2.006064 167.000000
3.411231 0.202406 -2.006120 162.000000
3.410385 0.212104 -2.006176 155.000000
3.057459 1.141350 -1.962426 153.000000
3.052560 1.150943 -1.962477 155.000000
3.047620 1.160515 -1.962528 158.000000
3.042641 1.170066 -1.962579 155.000000
3.037622 1.179597 -1.962629 151.000000
2.989393 -1.711056 -2.057245 150.000000
2.996410 -1.701971 -2.057271 162.000000
3.003390 -1.692856 -2.057297 169.000000
3.010331 -1.683713 -2.057323 176.000000
3.017234 -1.674540 -2.057349 178.000000
3.024098 -1.665339 -2.057376 176.000000
3.030924 -1.656109 -2.057402 171.000000
3.037429 -1.647237 -2.057427 164.000000
3.044179 -1.637951 -2.057454 155.000000
3.062333 -1.636869 -2.065605 172.000000
3.068760 -1.627871 -2.065631 151.000000
3.109959 -1.642866 -2.090034 186.000000
3.116410 -1.633677 -2.090059 165.000000
3.180983 -1.664274 -2.130715 167.000000
3.187519 -1.654799 -2.130742 155.000000
3.220640 -1.579666 -2.122803 155.000000
3.226837 -1.570033 -2.122830 167.000000
3.232994 -1.560375 -2.122857 170.000000
3.239112 -1.550692 -2.122883 170.000000
3.233242 -1.533511 -2.114783 155.000000
3.238992 -1.524249 -2.114809 159.000000
3.244966 -1.514543 -2.114835 157.000000
3.250900 -1.504813 -2.114862 152.000000
3.002211 -1.734426 -2.047913 160.000000
3.009310 -1.725480 -2.047920 174.000000
3.016665 -1.716129 -2.047927 181.000000
3.023687 -1.707122 -2.047934 188.000000
3.019511 -1.689491 -2.039798 155.000000
3.026422 -1.680472 -2.039805 162.000000
3.033294 -1.671425 -2.039812 165.000000
3.040129 -1.662349 -2.039819 167.000000
3.046926 -1.653244 -2.039826 165.000000
3.053403 -1.644492 -2.039833 160.000000
3.060125 -1.635332 -2.039840 153.000000
3.078214 -1.634410 -2.047989 153.000000
3.118933 -1.650192 -2.072424 167.000000
3.125678 -1.640758 -2.072431 160.000000
3.132104 -1.631690 -2.072437 151.000000
3.196471 -1.662588 -2.113158 158.000000
3.202985 -1.653235 -2.113165 160.000000
3.209461 -1.643857 -2.113172 162.000000
3.216179 -1.634043 -2.113178 153.000000
3.339273 -1.703502 -2.194615 155.000000
3.246995 -1.613467 -2.121341 153.000000
3.159203 -1.541929 -2.056203 155.000000
3.165233 -1.532727 -2.056209 158.000000
3.171225 -1.523501 -2.056216 155.000000
3.177181 -1.514251 -2.056222 151.000000
3.230645 -1.535209 -2.088801 151.000000
4.262721 -1.610507 -2.634653 151.000000
4.268744 -1.597466 -2.634660 151.000000
4.274446 -1.584997 -2.634666 151.000000
5.342345 0.033990 -3.058799 151.000000
2.991138 -1.722870 -2.036173 158.000000
2.998183 -1.714032 -2.036172 179.000000
3.005482 -1.704794 -2.036171 193.000000
3.012452 -1.695896 -2.036170 195.000000
3.019384 -1.686969 -2.036170 193.000000
3.026279 -1.678012 -2.036169 191.000000
3.033136 -1.669027 -2.036167 186.000000
3.039955 -1.660014 -2.036166 181.000000
3.046737 -1.650971 -2.036165 177.000000
3.053200 -1.642280 -2.036164 172.000000
3.059908 -1.633182 -2.036162 167.000000
3.066577 -1.624056 -2.036161 160.000000
3.164275 -1.681177 -2.101405 151.000000
3.182597 -1.679801 -2.109559 151.000000
3.200660 -1.678706 -2.117713 172.000000
3.207519 -1.668990 -2.117711 155.000000
3.225605 -1.667700 -2.125865 158.000000
3.255303 -1.674292 -2.142174 158.000000
3.575810 -1.879071 -2.362374 151.000000
3.583186 -1.868252 -2.362372 151.000000
3.141027 -1.541851 -2.044299 155.000000
3.147052 -1.532782 -2.044297 160.000000
3.153040 -1.523688 -2.044295 160.000000
3.158992 -1.514570 -2.044292 155.000000
3.164907 -1.505429 -2.044290 151.000000
3.241987 -1.541716 -2.093221 158.000000
3.248010 -1.532240 -2.093218 153.000000
3.436486 0.134252 -1.953520 155.000000
3.435843 0.143603 -1.953511 162.000000
3.435165 0.152952 -1.953501 165.000000
3.434488 0.161854 -1.953491 165.000000
3.433744 0.171198 -1.953482 162.000000
3.433003 0.180094 -1.953472 155.000000
4.690068 1.222289 -2.791772 160.000000
4.685210 1.236895 -2.791753 162.000000
4.680295 1.251482 -2.791734 162.000000
4.675324 1.266050 -2.791714 160.000000
4.670068 1.281259 -2.791693 153.000000
4.678264 1.300475 -2.799819 170.000000
4.672870 1.315696 -2.799798 165.000000
4.667653 1.330235 -2.799779 155.000000
3.049000 -1.717958 -2.032517 168.000000
3.044989 -1.700443 -2.024296 163.000000
3.051920 -1.691665 -2.024279 173.000000
3.058814 -1.682858 -2.024261 180.000000
3.065672 -1.674022 -2.024243 182.000000
3.072492 -1.665158 -2.024225 180.000000
3.079276 -1.656265 -2.024207 166.000000
3.119436 -1.673042 -2.048800 156.000000
3.182588 -1.705926 -2.089800 177.000000
3.189542 -1.696571 -2.089780 182.000000
3.196170 -1.687579 -2.089761 177.000000
3.203047 -1.678167 -2.089741 166.000000
3.209601 -1.669120 -2.089721 152.000000
3.227839 -1.667812 -2.097904 163.000000
3.303177 -1.707353 -2.147103 163.000000
3.309848 -1.697904 -2.147082 173.000000
3.316769 -1.688015 -2.147060 170.000000
3.323362 -1.678511 -2.147038 166.000000
3.329917 -1.668980 -2.147017 156.000000
3.254998 -1.604263 -2.089576 156.000000
3.261255 -1.595008 -2.089555 154.000000
3.049667 -1.719343 -2.012704 155.000000
3.056957 -1.710335 -2.012690 170.000000
3.063920 -1.701657 -2.012676 181.000000
3.059835 -1.684243 -2.004433 155.000000
3.066688 -1.675554 -2.004419 158.000000
3.073505 -1.666835 -2.004404 160.000000
3.113642 -1.683789 -2.029071 177.000000
3.120493 -1.674874 -2.029055 174.000000
3.127023 -1.666303 -2.029039 174.000000
3.133801 -1.657331 -2.029023 167.000000
3.140541 -1.648332 -2.029006 155.000000
3.271200 -1.731370 -2.119488 181.000000
3.210276 -1.672065 -2.070108 151.000000
3.216795 -1.663133 -2.070090 151.000000
3.234957 -1.661979 -2.078299 151.000000
3.264295 -1.669245 -2.094734 158.000000
3.293729 -1.676300 -2.111169 155.000000
3.978864 -2.141817 -2.596516 151.000000
3.180224 -1.569250 -2.020638 153.000000
3.186330 -1.560440 -2.020620 153.000000
3.203994 -1.559521 -2.028827 167.000000
3.210060 -1.550616 -2.028808 167.000000
3.216091 -1.541686 -2.028788 158.000000
3.233774 -1.540506 -2.036994 155.000000
3.239764 -1.531482 -2.036974 151.000000
4.708144 1.287737 -2.752960 153.000000
3.007330 -1.725323 -1.990158 154.000000
3.014633 -1.716563 -1.990149 156.000000
3.021608 -1.708124 -1.990140 156.000000
3.028548 -1.699656 -1.990131 152.000000
3.090311 -1.734893 -2.031305 163.000000
3.075460 -1.708592 -2.014822 168.000000
3.082402 -1.699898 -2.014811 182.000000
3.089308 -1.691175 -2.014800 191.000000
3.096176 -1.682422 -2.014789 187.000000
3.103008 -1.673641 -2.014778 170.000000
3.154338 -1.698991 -2.047712 194.000000
3.160953 -1.690342 -2.047700 189.000000
3.156614 -1.672841 -2.039451 163.000000
3.163406 -1.663807 -2.039438 168.000000
3.226244 -1.696898 -2.080606 152.000000
3.244445 -1.695879 -2.088829 154.000000
3.251047 -1.686867 -2.088815 154.000000
3.257898 -1.677436 -2.088800 152.000000
3.241608 -1.652035 -2.072314 154.000000
3.248034 -1.643035 -2.072299 156.000000
3.598985 -1.875845 -2.319355 170.000000
3.249545 -1.616538 -2.064033 152.000000
3.255828 -1.607507 -2.064018 163.000000
3.192637 -1.550842 -2.014589 152.000000
3.198656 -1.542041 -2.014573 154.000000
3.204640 -1.533216 -2.014557 152.000000
3.499695 0.112816 -1.917945 156.000000
3.499091 0.121963 -1.917894 159.000000
3.498484 0.130672 -1.917845 161.000000
3.497814 0.139814 -1.917794 161.000000
3.497111 0.148954 -1.917742 156.000000
3.496410 0.157656 -1.917693 152.000000
5.203313 0.319302 -2.918002 152.000000
4.848138 1.220796 -2.813860 152.000000
4.763064 1.209286 -2.764677 156.000000
4.758227 1.223728 -2.764577 161.000000
4.753112 1.238806 -2.764472 161.000000
4.748163 1.253209 -2.764372 159.000000
4.809214 1.291752 -2.805156 154.000000
3.027381 -1.764936 -1.992025 151.000000
3.023913 -1.747539 -1.983780 151.000000
3.031270 -1.738986 -1.983789 172.000000
3.038297 -1.730745 -1.983799 184.000000
3.045581 -1.722129 -1.983807 184.000000
3.052538 -1.713828 -1.983816 181.000000
3.059460 -1.705498 -1.983823 179.000000
3.066633 -1.696790 -1.983831 179.000000
3.073483 -1.688402 -1.983838 181.000000
3.080298 -1.679984 -1.983845 181.000000
3.087079 -1.671538 -1.983851 179.000000
3.093823 -1.663064 -1.983857 172.000000
3.100532 -1.654562 -1.983862 162.000000
3.173556 -1.697741 -2.033403 165.000000
3.180125 -1.689272 -2.033407 162.000000
3.186944 -1.680406 -2.033412 153.000000
3.238385 -1.705431 -2.066439 153.000000
3.244986 -1.696701 -2.066443 153.000000
3.251836 -1.687563 -2.066446 158.000000
3.258365 -1.678778 -2.066449 162.000000
3.265140 -1.669584 -2.066452 155.000000
3.373624 -1.734987 -2.140757 162.000000
3.380344 -1.725711 -2.140759 158.000000
3.387316 -1.716003 -2.140760 153.000000
3.428270 -1.731000 -2.165529 155.000000
4.019919 -2.132713 -2.586586 153.000000
3.223103 -1.559667 -2.008666 153.000000
3.229117 -1.551001 -2.008666 155.000000
3.235097 -1.542310 -2.008665 155.000000
3.241041 -1.533596 -2.008664 151.000000
4.766036 1.199198 -2.746293 153.000000
4.760979 1.214057 -2.746184 167.000000
3.192066 0.678508 -1.777775 155.000000
3.189091 0.687025 -1.777712 155.000000
3.199432 0.699924 -1.785857 167.000000
3.196372 0.708471 -1.785793 162.000000
3.193278 0.717006 -1.785729 158.000000
3.177126 0.720237 -1.777464 155.000000
3.173985 0.728694 -1.777400 155.000000
3.170809 0.737138 -1.777336 153.000000
3.167600 0.745569 -1.777272 151.000000
3.269002 0.795044 -1.842827 153.000000
3.265561 0.803871 -1.842759 158.000000
3.262084 0.812685 -1.842692 160.000000
3.258572 0.821484 -1.842623 155.000000
3.950064 -2.632531 -2.709925 151.000000
3.950367 -2.611238 -2.701735 153.000000
3.961445 -2.598835 -2.701792 151.000000
3.048168 -1.768447 -1.976138 153.000000
3.055273 -1.760351 -1.976175 155.000000
3.052055 -1.742682 -1.967965 162.000000
3.059052 -1.734571 -1.968000 181.000000
3.066305 -1.726090 -1.968037 195.000000
3.073232 -1.717919 -1.968072 205.000000
3.080126 -1.709719 -1.968106 210.000000
3.087270 -1.701147 -1.968141 207.000000
3.094093 -1.692889 -1.968175 198.000000
3.100881 -1.684601 -1.968208 188.000000
3.107634 -1.676286 -1.968241 177.000000
3.114353 -1.667942 -1.968274 162.000000
3.121036 -1.659571 -1.968306 151.000000
3.237679 -1.738169 -2.050829 191.000000
3.244366 -1.729648 -2.050861 179.000000
3.251308 -1.720728 -2.050894 165.000000
3.280426 -1.728903 -2.067426 151.000000
3.287076 -1.720211 -2.067457 158.000000
3.293978 -1.711112 -2.067489 155.000000
3.300557 -1.702365 -2.067519 151.000000
3.307384 -1.693209 -2.067550 151.000000
3.342988 -1.692155 -2.084111 153.000000
3.349773 -1.682821 -2.084141 153.000000
3.265191 -1.608307 -2.018162 155.000000
3.271357 -1.599679 -2.018190 160.000000
3.277488 -1.591025 -2.018217 160.000000
3.283584 -1.582347 -2.018243 153.000000
3.335690 -1.605675 -2.051275 155.000000
3.341845 -1.596762 -2.051302 162.000000
3.336389 -1.579910 -2.043076 151.000000
3.876346 -1.778181 -2.373458 153.000000
3.882896 -1.767569 -2.373483 155.000000
3.889700 -1.756447 -2.373509 155.000000
3.896166 -1.745784 -2.373533 153.000000
5.411827 0.110154 -2.991106 153.000000
5.411155 0.125916 -2.991058 160.000000
5.410425 0.141677 -2.991009 165.000000
5.409676 0.156684 -2.990963 150.000000
5.341739 0.557596 -2.973051 151.000000
3.221483 0.646778 -1.767645 153.000000
3.218594 0.655205 -1.767599 160.000000
3.215799 0.663255 -1.767554 162.000000
3.212844 0.671659 -1.767507 158.000000
3.200824 0.704792 -1.767319 155.000000
3.197702 0.713136 -1.767271 162.000000
3.194547 0.721467 -1.767223 167.000000
3.191359 0.729786 -1.767174 167.000000
3.188137 0.738091 -1.767125 162.000000
3.184882 0.746384 -1.767076 160.000000
3.181594 0.754663 -1.767027 155.000000
3.035575 -1.747872 -1.962475 157.000000
3.042608 -1.739869 -1.962513 171.000000
3.049898 -1.731502 -1.962551 171.000000
3.046246 -1.714272 -1.954342 164.000000
3.053424 -1.705890 -1.954380 178.000000
3.060280 -1.697813 -1.954415 187.000000
3.067103 -1.689708 -1.954451 191.000000
3.074173 -1.681234 -1.954487 194.000000
3.080926 -1.673071 -1.954522 173.000000
3.087645 -1.664879 -1.954556 151.000000
3.126979 -1.683199 -1.979333 171.000000
3.133740 -1.674814 -1.979367 166.000000
3.140465 -1.666400 -1.979401 160.000000
3.147156 -1.657958 -1.979434 151.000000
3.175592 -1.667169 -1.995962 166.000000
3.226545 -1.693048 -2.028988 151.000000
3.233347 -1.684244 -2.029022 157.000000
3.239831 -1.675780 -2.029053 153.000000
3.257731 -1.675398 -2.037335 155.000000
3.544310 -1.877667 -2.243591 166.000000
3.551884 -1.867523 -2.243627 173.000000
3.559103 -1.857772 -2.243662 175.000000
3.566283 -1.847992 -2.243696 175.000000
3.573733 -1.837755 -2.243731 168.000000
3.580833 -1.827917 -2.243764 161.000000
3.587893 -1.818050 -2.243797 150.000000
3.188261 0.726615 -1.762174 151.000000
3.057194 -1.757471 -1.942455 172.000000
3.053725 -1.740240 -1.934323 160.000000
3.060947 -1.732059 -1.934398 174.000000
3.067847 -1.724175 -1.934470 183.000000
3.074999 -1.715933 -1.934545 190.000000
3.081831 -1.707991 -1.934616 192.000000
3.088629 -1.700021 -1.934687 192.000000
3.095676 -1.691688 -1.934761 190.000000
3.102406 -1.683659 -1.934832 183.000000
3.109102 -1.675603 -1.934903 174.000000
3.115765 -1.667518 -1.934973 163.000000
3.122394 -1.659406 -1.935043 151.000000
3.172584 -1.686715 -1.967951 151.000000
3.190228 -1.687180 -1.976233 172.000000
3.196660 -1.679106 -1.976301 153.000000
3.368449 -1.801539 -2.099534 153.000000
3.284887 -1.679994 -2.017710 151.000000
3.202089 -1.603204 -1.952080 156.000000
3.208183 -1.595083 -1.952146 165.000000
3.214245 -1.586939 -1.952211 172.000000
3.220535 -1.578414 -1.952279 176.000000
3.226530 -1.570220 -1.952344 174.000000
3.232491 -1.562002 -1.952409 172.000000
3.238420 -1.553760 -1.952473 167.000000
3.244315 -1.545494 -1.952538 160.000000
3.250178 -1.537205 -1.952602 156.000000
4.255218 -1.630628 -2.489584 151.000000
4.260874 -1.619338 -2.489652 160.000000
4.254188 -1.601234 -2.481494 153.000000
4.259736 -1.589949 -2.481561 158.000000
4.265242 -1.578643 -2.481628 163.000000
4.270966 -1.566778 -2.481697 163.000000
4.276387 -1.555431 -2.481763 158.000000
4.282022 -1.543523 -2.481832 151.000000
5.418641 0.091109 -2.966155 153.000000
5.418007 0.105924 -2.966177 155.000000
5.417287 0.121479 -2.966200 153.000000
3.228116 0.626338 -1.744897 153.000000
3.225262 0.634538 -1.744889 158.000000
3.222501 0.642371 -1.744880 158.000000
3.219583 0.650548 -1.744871 156.000000
3.216632 0.658714 -1.744861 153.000000
4.755136 1.268408 -2.718755 151.000000
4.749685 1.282765 -2.718736 151.000000
3.066957 -1.743958 -1.915092 164.000000
3.074140 -1.735907 -1.915189 169.000000
3.081002 -1.728149 -1.915283 169.000000
3.088116 -1.720037 -1.915380 166.000000
3.094912 -1.712220 -1.915474 164.000000
3.101675 -1.704375 -1.915567 162.000000
3.108685 -1.696173 -1.915664 164.000000
3.115381 -1.688270 -1.915757 164.000000
3.197240 -1.743912 -1.973081 209.000000
3.171793 -1.708526 -1.948648 152.000000
3.178540 -1.700358 -1.948743 159.000000
3.185251 -1.692162 -1.948837 159.000000
3.202821 -1.692837 -1.957109 157.000000
3.274791 -1.738017 -2.006271 154.000000
3.347446 -1.782271 -2.055443 181.000000
3.343496 -1.764600 -2.047364 164.000000
3.328111 -1.738643 -2.031100 159.000000
3.334980 -1.729817 -2.031199 169.000000
3.341529 -1.721331 -2.031294 166.000000
3.348326 -1.712449 -2.031392 154.000000
3.365981 -1.712446 -2.039669 171.000000
3.372459 -1.703836 -2.039764 166.000000
3.379182 -1.694824 -2.039862 159.000000
3.317910 -1.635778 -1.990856 159.000000
3.312768 -1.619011 -1.982763 157.000000
3.262140 -1.569088 -1.941931 150.000000
3.324944 -1.602200 -1.982944 164.000000
3.330981 -1.593757 -1.983035 164.000000
3.336984 -1.585291 -1.983125 159.000000
3.342953 -1.576800 -1.983215 152.000000
3.360399 -1.576361 -1.991492 162.000000
5.527752 -0.655539 -3.022202 150.000000
5.529668 -0.640487 -3.022292 159.000000
5.531623 -0.624676 -3.022387 159.000000
5.533431 -0.609611 -3.022476 164.000000
5.535186 -0.594539 -3.022566 169.000000
5.536973 -0.578708 -3.022659 164.000000
5.538620 -0.563624 -3.022748 154.000000
5.263904 0.104267 -2.853051 152.000000
5.263134 0.119094 -2.853119 159.000000
5.262350 0.133213 -2.853183 157.000000
5.261475 0.148035 -2.853250 154.000000
3.579902 0.075634 -1.863205 150.000000
3.579267 0.084261 -1.863243 154.000000
3.564619 0.091815 -1.855029 154.000000
3.535971 0.098141 -1.838561 152.000000
3.535254 0.106606 -1.838597 152.000000
3.534542 0.114666 -1.838632 152.000000
5.265245 0.281124 -2.862082 157.000000
5.263827 0.295955 -2.862144 157.000000
5.262354 0.310782 -2.862207 154.000000
5.335893 0.409727 -2.912102 152.000000
5.320090 0.423082 -2.903907 152.000000
5.318151 0.438114 -2.903967 152.000000
5.316156 0.453140 -2.904026 154.000000
5.314106 0.468158 -2.904085 154.000000
5.312002 0.483169 -2.904143 157.000000
5.309842 0.498172 -2.904201 157.000000
5.307627 0.513167 -2.904258 150.000000
5.134209 0.822185 -2.839336 150.000000
5.130646 0.837215 -2.839383 152.000000
5.127025 0.852231 -2.839429 152.000000
3.226437 0.613678 -1.724772 154.000000
3.223586 0.621699 -1.724789 162.000000
3.220702 0.629709 -1.724806 152.000000
3.230949 0.642518 -1.733088 159.000000
4.792044 1.229482 -2.716610 178.000000
4.786688 1.243814 -2.716639 185.000000
4.781275 1.258124 -2.716667 188.000000
3.231969 0.679625 -1.741417 162.000000
3.228853 0.687668 -1.741432 166.000000
3.212525 0.690917 -1.733183 150.000000
3.303190 0.765789 -1.799365 150.000000
3.196110 0.731298 -1.733254 154.000000
3.192786 0.739197 -1.733267 157.000000
3.189285 0.747424 -1.733280 150.000000
3.262936 0.788988 -1.782889 150.000000
3.259379 0.797156 -1.782901 152.000000
3.255633 0.805664 -1.782914 152.000000
3.251851 0.814156 -1.782926 150.000000
3.057886 -1.757011 -1.896755 151.000000
3.065085 -1.749141 -1.896863 167.000000
3.071964 -1.741556 -1.896966 179.000000
3.079096 -1.733624 -1.897073 188.000000
3.085910 -1.725981 -1.897176 193.000000
3.092974 -1.717988 -1.897283 177.000000
3.120835 -1.728925 -1.913686 167.000000
3.127629 -1.721107 -1.913790 174.000000
3.134670 -1.712932 -1.913898 165.000000
3.120049 -1.686688 -1.897698 153.000000
3.169514 -1.715427 -1.930411 177.000000
3.176250 -1.707404 -1.930516 172.000000
3.182952 -1.699353 -1.930621 160.000000
3.297873 -1.781297 -2.012268 188.000000
3.207117 -1.692123 -1.938985 151.000000
3.213479 -1.684283 -1.939086 155.000000
3.220084 -1.676076 -1.939191 153.000000
3.303459 -1.729586 -1.996392 155.000000
3.309969 -1.721357 -1.996497 162.000000
3.316727 -1.712744 -1.996606 165.000000
3.312090 -1.695778 -1.988552 160.000000
3.318741 -1.687155 -1.988661 160.000000
3.325081 -1.678867 -1.988764 165.000000
3.331387 -1.670552 -1.988868 172.000000
3.337932 -1.661850 -1.988976 174.000000
3.332917 -1.645028 -1.980919 153.000000
3.339088 -1.636683 -1.981021 153.000000
3.356544 -1.636678 -1.989287 162.000000
3.714611 -1.886131 -2.242440 165.000000
3.721739 -1.876244 -2.242560 158.000000
5.531063 -0.556354 -2.997221 151.000000
5.532593 -0.541407 -2.997335 155.000000
5.534071 -0.526454 -2.997448 158.000000
5.535566 -0.510748 -2.997567 158.000000
5.536937 -0.495785 -2.997679 155.000000
5.302651 0.359575 -2.871624 153.000000
5.300904 0.374424 -2.871713 155.000000
5.299103 0.389266 -2.871801 153.000000
5.346942 0.456052 -2.905155 158.000000
5.344840 0.471063 -2.905242 162.000000
5.328801 0.484092 -2.897077 151.000000
5.340471 0.501061 -2.905415 155.000000
4.821813 1.185592 -2.710996 153.000000
4.803422 1.195114 -2.702789 153.000000
4.798161 1.209360 -2.702848 165.000000
4.792842 1.223586 -2.702905 162.000000
4.787466 1.237789 -2.702963 158.000000
3.294895 0.780042 -1.785706 151.000000
3.056002 -1.761475 -1.879286 162.000000
3.063182 -1.753754 -1.879396 177.000000
3.070328 -1.746001 -1.879506 188.000000
3.077156 -1.738530 -1.879611 191.000000
3.084235 -1.730716 -1.879721 188.000000
3.090999 -1.723187 -1.879826 181.000000
3.098011 -1.715313 -1.879936 170.000000
3.104711 -1.707726 -1.880042 151.000000
3.132511 -1.718760 -1.896410 160.000000
3.139503 -1.710705 -1.896521 155.000000
3.178118 -1.730644 -1.921026 179.000000
3.184880 -1.722720 -1.921134 184.000000
3.191608 -1.714767 -1.921243 172.000000
3.198303 -1.706787 -1.921351 167.000000
3.204964 -1.698778 -1.921460 170.000000
3.211592 -1.690742 -1.921569 153.000000
3.239653 -1.700942 -1.937945 151.000000
3.279014 -1.719514 -1.962466 158.000000
3.340451 -1.755525 -2.003265 179.000000
3.336047 -1.738450 -1.995237 153.000000
3.342837 -1.729862 -1.995351 155.000000
3.349310 -1.721606 -1.995460 153.000000
3.378206 -1.730343 -2.011854 162.000000
3.240089 -1.609553 -1.906138 151.000000
3.246083 -1.601712 -1.906240 165.000000
3.252304 -1.593505 -1.906348 167.000000
3.258234 -1.585615 -1.906450 167.000000
3.264132 -1.577701 -1.906553 162.000000
3.269999 -1.569764 -1.906656 155.000000
5.445187 -0.003529 -2.918113 151.000000
5.430724 0.010620 -2.909994 158.000000
5.430216 0.025820 -2.910112 165.000000
5.429681 0.040295 -2.910224 170.000000
5.429064 0.055491 -2.910342 172.000000
5.428392 0.070685 -2.910459 172.000000
5.427700 0.085153 -2.910570 172.000000
5.426919 0.100342 -2.910687 153.000000
3.573612 0.059983 -1.824105 160.000000
3.544983 0.066267 -1.807693 153.000000
3.544348 0.074135 -1.807752 162.000000
3.543653 0.082395 -1.807813 170.000000
3.542927 0.090651 -1.807875 172.000000
3.542171 0.098906 -1.807936 174.000000
3.541385 0.107157 -1.807997 172.000000
3.540568 0.115405 -1.808057 170.000000
3.539722 0.123651 -1.808118 162.000000
4.796369 1.171386 -2.679126 151.000000
4.791163 1.185472 -2.679204 162.000000
4.785901 1.199537 -2.679281 153.000000
3.227174 0.645266 -1.704447 151.000000
3.224123 0.653031 -1.704489 153.000000
3.220908 0.661121 -1.704533 153.000000
3.178066 0.726661 -1.696636 153.000000
3.174542 0.734557 -1.696676 167.000000
3.170985 0.742438 -1.696715 165.000000
3.167396 0.750305 -1.696754 162.000000
3.163622 0.758483 -1.696794 155.000000
3.172667 0.772238 -1.705101 179.000000
3.168952 0.780111 -1.705139 170.000000
3.165047 0.788296 -1.705178 158.000000
3.224449 0.888985 -1.763330 151.000000
3.220067 0.897413 -1.763368 153.000000
3.203244 0.899305 -1.755135 153.000000
3.198639 0.907973 -1.755174 151.000000
3.804743 -2.525122 -2.470440 152.000000
3.815175 -2.514300 -2.470587 152.000000
3.063175 -1.769879 -1.862679 161.000000
3.070055 -1.762617 -1.862777 161.000000
3.077190 -1.755022 -1.862879 163.000000
3.084291 -1.747396 -1.862981 163.000000
3.091077 -1.740045 -1.863079 166.000000
3.098113 -1.732358 -1.863182 173.000000
3.104835 -1.724950 -1.863280 180.000000
3.111805 -1.717204 -1.863383 187.000000
3.118464 -1.709738 -1.863482 177.000000
3.125092 -1.702245 -1.863580 156.000000
3.153104 -1.713081 -1.879910 163.000000
3.159745 -1.705443 -1.880010 156.000000
3.187651 -1.716269 -1.896339 156.000000
3.204991 -1.717686 -1.904555 154.000000
3.265273 -1.755611 -1.945235 163.000000
3.272089 -1.747501 -1.945340 159.000000
3.289671 -1.748428 -1.953562 152.000000
3.307010 -1.749581 -1.961780 177.000000
3.313800 -1.741295 -1.961887 170.000000
3.320555 -1.732981 -1.961993 153.000000
3.381728 -1.769421 -2.002690 175.000000
3.388599 -1.760822 -2.002800 168.000000
3.395149 -1.752553 -2.002904 161.000000
3.401949 -1.743898 -2.003014 156.000000
3.685676 -1.953207 -2.206154 166.000000
3.314761 -1.649284 -1.930126 154.000000
3.321132 -1.640968 -1.930230 163.000000
3.327204 -1.632973 -1.930330 163.000000
3.333244 -1.624954 -1.930430 159.000000
4.353158 -1.690019 -2.456010 152.000000
4.358860 -1.678928 -2.456134 154.000000
4.364521 -1.667815 -2.456258 154.000000
4.370409 -1.656151 -2.456388 152.000000
5.544862 -0.640444 -2.959370 152.000000
5.459440 0.037090 -2.899544 154.000000
5.458823 0.051512 -2.899662 152.000000
4.862710 1.179440 -2.694464 152.000000
4.831126 1.183855 -2.678062 156.000000
4.825590 1.198515 -2.678156 161.000000
4.820227 1.212542 -2.678245 163.000000
4.814808 1.226547 -2.678334 163.000000
4.809093 1.241138 -2.678427 159.000000
3.251238 0.642328 -1.696915 152.000000
3.221973 0.639944 -1.680467 154.000000
3.218899 0.647518 -1.680514 152.000000
3.218791 0.684137 -1.688958 156.000000
3.195670 0.702125 -1.680851 152.000000
3.192202 0.709916 -1.680898 156.000000
3.188700 0.717693 -1.680945 159.000000
3.185019 0.725778 -1.680993 156.000000
3.181451 0.733524 -1.681039 154.000000
3.179186 0.771068 -1.689480 152.000000
3.200655 0.791035 -1.706034 152.000000
3.196653 0.799172 -1.706081 152.000000
3.267967 0.844689 -1.755660 152.000000
3.263898 0.852783 -1.755706 152.000000
3.062416 -1.750742 -1.846887 166.000000
3.069480 -1.743250 -1.846984 182.000000
3.076512 -1.735727 -1.847080 196.000000
3.083232 -1.728476 -1.847173 205.000000
3.090200 -1.720893 -1.847270 210.000000
3.096857 -1.713585 -1.847363 210.000000
3.103760 -1.705943 -1.847460 205.000000
3.110354 -1.698579 -1.847553 196.000000
3.116918 -1.691187 -1.847646 187.000000
3.123723 -1.683457 -1.847743 177.000000
3.130223 -1.676009 -1.847836 159.000000
3.179230 -1.705597 -1.880370 152.000000
3.239187 -1.744020 -1.921020 184.000000
3.245938 -1.736086 -1.921118 182.000000
3.252655 -1.728124 -1.921217 175.000000
3.259339 -1.720134 -1.921315 161.000000
3.276536 -1.721493 -1.929523 159.000000
3.348356 -1.767382 -1.978303 176.000000
3.355201 -1.758989 -1.978406 171.000000
3.361729 -1.750920 -1.978505 164.000000
3.368505 -1.742472 -1.978608 160.000000
3.374965 -1.734349 -1.978706 155.000000
3.381673 -1.725846 -1.978809 153.000000
3.709306 -1.970711 -2.214295 152.000000
3.329048 -1.632508 -1.922380 154.000000
3.335070 -1.624546 -1.922476 159.000000
3.341059 -1.616559 -1.922571 156.000000
3.369584 -1.625455 -1.938907 154.000000
3.375577 -1.617330 -1.939003 152.000000
5.481793 -0.598008 -2.909526 163.000000
5.483378 -0.583561 -2.909653 170.000000
5.484988 -0.568386 -2.909787 170.000000
5.486470 -0.553928 -2.909914 168.000000
5.487901 -0.539465 -2.910041 166.000000
5.489350 -0.524274 -2.910174 163.000000
5.490678 -0.509801 -2.910301 159.000000
5.491955 -0.495324 -2.910427 152.000000
3.587447 0.074264 -1.799493 154.000000
3.586693 0.082467 -1.799558 156.000000
3.585908 0.090666 -1.799622 156.000000
3.585094 0.098863 -1.799686 152.000000
3.203758 0.644660 -1.664064 156.000000
3.200649 0.652096 -1.664110 159.000000
3.197372 0.659842 -1.664159 154.000000
3.180504 0.698362 -1.664397 154.000000
3.176889 0.706343 -1.664445 163.000000
3.173385 0.713988 -1.664492 166.000000
3.169850 0.721620 -1.664538 168.000000
3.166133 0.729553 -1.664586 170.000000
3.162532 0.737154 -1.664631 170.000000
3.158748 0.745055 -1.664679 168.000000
3.155082 0.752625 -1.664724 161.000000
3.243801 0.857111 -1.739241 152.000000
3.239317 0.865697 -1.739290 159.000000
3.234968 0.873934 -1.739337 161.000000
3.230583 0.882151 -1.739384 163.000000
3.226163 0.890350 -1.739431 163.000000
3.221527 0.898856 -1.739479 161.000000
3.192458 0.893502 -1.723023 154.000000
3.084100 -1.747816 -1.832299 150.000000
3.091208 -1.740536 -1.832368 166.000000
3.098284 -1.733225 -1.832437 180.000000
3.105048 -1.726178 -1.832503 192.000000
3.112062 -1.718806 -1.832573 199.000000
3.119043 -1.711405 -1.832642 201.000000
3.125715 -1.704270 -1.832708 201.000000
3.132633 -1.696809 -1.832778 197.000000
3.139243 -1.689618 -1.832845 190.000000
3.146097 -1.682097 -1.832914 178.000000
3.152646 -1.674850 -1.832981 169.000000
3.159164 -1.667575 -1.833048 159.000000
3.165922 -1.659968 -1.833118 150.000000
3.225218 -1.699350 -1.873732 183.000000
3.231837 -1.691770 -1.873801 169.000000
3.238425 -1.684163 -1.873870 162.000000
3.244980 -1.676528 -1.873940 157.000000
3.315836 -1.723848 -1.922674 150.000000
3.752965 -2.080627 -2.247198 150.000000
3.760826 -2.071238 -2.247283 159.000000
3.768988 -2.061407 -2.247371 164.000000
3.777109 -2.051541 -2.247460 155.000000
3.416257 -1.712812 -1.963739 157.000000
3.422929 -1.704431 -1.963814 159.000000
3.374030 -1.652574 -1.923313 150.000000
3.380184 -1.644714 -1.923382 155.000000
3.375448 -1.627816 -1.915340 150.000000
3.314559 -1.568207 -1.866715 150.000000
3.320376 -1.560587 -1.866782 150.000000
3.337388 -1.561476 -1.874965 150.000000
3.410737 -1.604695 -1.923734 155.000000
3.416698 -1.596687 -1.923804 150.000000
4.087504 -1.892232 -2.338947 153.000000
4.094296 -1.881967 -2.339033 153.000000
5.642148 -0.673422 -2.961787 157.000000
5.644046 -0.658666 -2.961887 162.000000
5.631934 -0.642126 -2.953819 150.000000
5.633811 -0.626669 -2.953923 157.000000
5.635547 -0.611942 -2.954022 150.000000
5.380686 0.001360 -2.794417 155.000000
5.380210 0.015889 -2.794508 164.000000
5.379707 0.029726 -2.794595 169.000000
5.379128 0.044252 -2.794686 166.000000
5.378495 0.058775 -2.794776 159.000000
5.518286 0.079683 -2.876705 166.000000
5.517558 0.094002 -2.876794 161.000000
5.502698 0.108294 -2.868703 150.000000
3.614271 0.097482 -1.772520 150.000000
3.613479 0.105526 -1.772569 153.000000
3.612657 0.113566 -1.772617 150.000000
3.254271 0.630362 -1.644611 159.000000
3.251138 0.638040 -1.644650 171.000000
3.248105 0.645386 -1.644687 173.000000
3.231944 0.647632 -1.636515 157.000000
3.228739 0.655216 -1.636553 162.000000
3.225502 0.662786 -1.636591 162.000000
3.222234 0.670343 -1.636629 162.000000
3.218933 0.677886 -1.636667 157.000000
3.215602 0.685416 -1.636704 153.000000
3.224920 0.698976 -1.644955 150.000000
3.234298 0.712317 -1.653206 161.000000
3.230821 0.719911 -1.653243 161.000000
3.214418 0.721909 -1.645068 162.000000
3.210901 0.729419 -1.645105 159.000000
3.207205 0.737226 -1.645143 162.000000
3.203624 0.744706 -1.645179 166.000000
3.199862 0.752481 -1.645217 166.000000
3.196065 0.760240 -1.645254 159.000000
3.192388 0.767673 -1.645290 150.000000
3.246749 0.876245 -1.703102 155.000000
3.230078 0.877491 -1.694922 150.000000
3.225559 0.885696 -1.694960 153.000000
3.221003 0.893881 -1.694997 153.000000
3.228650 0.908930 -1.703253 150.000000
3.112442 -1.743043 -1.816045 151.000000
3.119506 -1.735892 -1.816088 163.000000
3.126539 -1.728710 -1.816132 172.000000
3.133261 -1.721786 -1.816173 179.000000
3.140232 -1.714544 -1.816217 181.000000
3.147172 -1.707272 -1.816260 181.000000
3.153804 -1.700262 -1.816302 179.000000
3.160681 -1.692930 -1.816346 172.000000
3.167253 -1.685864 -1.816388 165.000000
3.174067 -1.678474 -1.816433 156.000000
3.190991 -1.680880 -1.824570 176.000000
3.249773 -1.721105 -1.865089 164.000000
3.256739 -1.713355 -1.865135 169.000000
3.263395 -1.705886 -1.865179 167.000000
3.270019 -1.698389 -1.865224 160.000000
3.287222 -1.700170 -1.873365 158.000000
3.304471 -1.701834 -1.881506 163.000000
3.311078 -1.694165 -1.881551 151.000000
3.360556 -1.723153 -1.913985 163.000000
3.366973 -1.715579 -1.914030 163.000000
3.373636 -1.707648 -1.914076 151.000000
3.434457 -1.744877 -1.954612 160.000000
3.517080 -1.799963 -2.011345 153.000000
3.524093 -1.791402 -2.011395 153.000000
3.530780 -1.783171 -2.011444 153.000000
3.537723 -1.774553 -2.011494 151.000000
4.062273 -2.180534 -2.392201 163.000000
3.727807 -1.898272 -2.141182 153.000000
3.735227 -1.888827 -2.141237 160.000000
3.742300 -1.879747 -2.141290 165.000000
3.749337 -1.870638 -2.141343 165.000000
3.756338 -1.861501 -2.141397 163.000000
5.567228 -0.624877 -2.873395 156.000000
5.568945 -0.610593 -2.873471 160.000000
5.570694 -0.595589 -2.873550 160.000000
5.572309 -0.581294 -2.873625 156.000000
3.630351 0.083342 -1.744594 151.000000
3.629591 0.091233 -1.744634 153.000000
3.628802 0.099121 -1.744674 151.000000
4.902228 1.193004 -2.621906 158.000000
4.896679 1.207342 -2.621975 165.000000
4.851997 1.205691 -2.597522 158.000000
4.833315 1.214641 -2.589417 160.000000
4.814618 1.223458 -2.581312 160.000000
4.809181 1.236847 -2.581377 165.000000
4.803450 1.250796 -2.581444 165.000000
4.797660 1.264720 -2.581511 158.000000
3.254570 0.686319 -1.625363 153.000000
3.251037 0.694067 -1.625400 160.000000
3.247614 0.701490 -1.625436 158.000000
3.244015 0.709207 -1.625473 160.000000
3.240528 0.716601 -1.625508 165.000000
3.236864 0.724287 -1.625545 160.000000
3.233165 0.731957 -1.625581 151.000000
3.213201 0.740730 -1.617474 151.000000
3.209432 0.748296 -1.617510 153.000000
3.205629 0.755846 -1.617546 156.000000
3.201639 0.763681 -1.617583 153.000000
3.102145 -1.752915 -1.809249 150.000000
3.109524 -1.745600 -1.809284 168.000000
3.116588 -1.738535 -1.809318 186.000000
3.123621 -1.731439 -1.809351 198.000000
3.130623 -1.724313 -1.809386 200.000000
3.137316 -1.717443 -1.809418 200.000000
3.144257 -1.710257 -1.809453 193.000000
3.151166 -1.703041 -1.809487 184.000000
3.157770 -1.696085 -1.809520 170.000000
3.164617 -1.688810 -1.809555 152.000000
3.202114 -1.710679 -1.833883 163.000000
3.209025 -1.703210 -1.833918 157.000000
3.226028 -1.705550 -1.842052 168.000000
3.232640 -1.698281 -1.842086 163.000000
3.239496 -1.690679 -1.842122 150.000000
3.330205 -1.758594 -1.906952 173.000000
3.337038 -1.750887 -1.906988 177.000000
3.343838 -1.743152 -1.907025 179.000000
3.350606 -1.735389 -1.907062 175.000000
3.357342 -1.727597 -1.907099 166.000000
3.364044 -1.719777 -1.907135 152.000000
3.456440 -1.785373 -1.971976 159.000000
3.463383 -1.777138 -1.972015 163.000000
3.470291 -1.768873 -1.972054 159.000000
3.476879 -1.760926 -1.972091 152.000000
3.708953 -1.922925 -2.134202 152.000000
3.716467 -1.913630 -2.134245 175.000000
3.723631 -1.904694 -2.134287 175.000000
3.730759 -1.895728 -2.134330 168.000000
3.738158 -1.886342 -2.134373 159.000000
5.518851 -0.581971 -2.832332 150.000000
5.520413 -0.567917 -2.832393 152.000000
5.522000 -0.553154 -2.832458 150.000000
5.429424 0.007375 -2.769758 152.000000
5.428905 0.021801 -2.769821 154.000000
5.428332 0.036224 -2.769883 154.000000
5.440400 0.079494 -2.778211 150.000000
5.453680 0.094713 -2.786418 150.000000
3.634243 0.067820 -1.736019 157.000000
3.633530 0.075663 -1.736052 166.000000
3.632788 0.083504 -1.736086 170.000000
3.632017 0.091342 -1.736119 168.000000
3.631218 0.099177 -1.736153 166.000000
3.630390 0.107009 -1.736186 157.000000
3.243634 0.606117 -1.591733 150.000000
4.772443 1.254638 -2.555200 150.000000
3.250372 0.661572 -1.608246 152.000000
3.247073 0.668922 -1.608277 157.000000
3.243605 0.676564 -1.608308 159.000000
3.240243 0.683885 -1.608338 157.000000
3.222537 0.721184 -1.608492 150.000000
3.211349 0.743738 -1.608584 152.000000
3.207402 0.751522 -1.608616 157.000000
3.203573 0.758990 -1.608646 161.000000
3.199711 0.766441 -1.608677 157.000000
3.113579 -1.754484 -1.794329 152.000000
3.120647 -1.747599 -1.794348 161.000000
3.118067 -1.730357 -1.786256 156.000000
3.125030 -1.723453 -1.786275 161.000000
3.131963 -1.716517 -1.786294 163.000000
3.138865 -1.709552 -1.786312 163.000000
3.145463 -1.702837 -1.786330 161.000000
3.152306 -1.695812 -1.786349 156.000000
3.169274 -1.698545 -1.794479 193.000000
3.175825 -1.691702 -1.794497 191.000000
3.182619 -1.684546 -1.794517 181.000000
3.189111 -1.677648 -1.794535 172.000000
3.247452 -1.718490 -1.835114 177.000000
3.254086 -1.711320 -1.835133 172.000000
3.260689 -1.704122 -1.835152 165.000000
3.267536 -1.696595 -1.835172 154.000000
3.305526 -1.717647 -1.859529 158.000000
3.312155 -1.710234 -1.859549 154.000000
3.382121 -1.758876 -1.908244 165.000000
3.388921 -1.751141 -1.908265 163.000000
3.474036 -1.716094 -1.932770 154.000000
3.393155 -1.636755 -1.867882 154.000000
3.399183 -1.629300 -1.867901 156.000000
3.405181 -1.621821 -1.867921 156.000000
3.411408 -1.613991 -1.867942 152.000000
3.428426 -1.615186 -1.876076 168.000000
3.434367 -1.607590 -1.876096 161.000000
3.833447 -1.875176 -2.152059 154.000000
3.840425 -1.865952 -2.152083 152.000000
3.858654 -1.865154 -2.160223 152.000000
5.546722 -0.617650 -2.822567 156.000000
5.548387 -0.603657 -2.822603 161.000000
5.550002 -0.589659 -2.822639 158.000000
3.649232 0.079159 -1.717724 154.000000
3.648448 0.086891 -1.717744 154.000000
4.814461 1.182113 -2.534202 168.000000
4.808923 1.195822 -2.534236 172.000000
4.803329 1.209507 -2.534270 177.000000
4.797676 1.223169 -2.534304 179.000000
4.791967 1.236807 -2.534338 181.000000
4.786201 1.250421 -2.534373 179.000000
4.780377 1.264011 -2.534406 177.000000
4.774251 1.278141 -2.534442 170.000000
4.768312 1.291681 -2.534476 156.000000
3.243548 0.665162 -1.580871 154.000000
3.240060 0.672592 -1.580889 152.000000
3.249254 0.686057 -1.589060 172.000000
3.245818 0.693214 -1.589078 181.000000
3.242207 0.700653 -1.589096 188.000000
3.238564 0.708076 -1.589115 191.000000
3.234888 0.715484 -1.589133 181.000000
3.231031 0.723170 -1.589152 168.000000
3.215719 0.752862 -1.589226 161.000000
3.211848 0.760169 -1.589244 165.000000
3.207789 0.767751 -1.589263 156.000000
3.146958 -1.744212 -1.774897 163.000000
3.154219 -1.737141 -1.774906 168.000000
3.161170 -1.730312 -1.774913 170.000000
3.168091 -1.723451 -1.774921 170.000000
3.174982 -1.716561 -1.774929 168.000000
3.181569 -1.709918 -1.774936 163.000000
3.188401 -1.702970 -1.774944 156.000000
3.205307 -1.705806 -1.783093 208.000000
3.211849 -1.699036 -1.783100 189.000000
3.218633 -1.691955 -1.783108 163.000000
3.266033 -1.723870 -1.815681 175.000000
3.272926 -1.716552 -1.815689 175.000000
3.279512 -1.709499 -1.815697 170.000000
3.286068 -1.702418 -1.815704 161.000000
3.303260 -1.704522 -1.823854 154.000000
3.361961 -1.744666 -1.864570 166.000000
3.368664 -1.737240 -1.864577 166.000000
3.375336 -1.729785 -1.864585 161.000000
3.381976 -1.722303 -1.864593 154.000000
3.473307 -1.789102 -1.929735 173.000000
3.480196 -1.781208 -1.929743 168.000000
3.486765 -1.773617 -1.929751 159.000000
3.761201 -1.994583 -2.133308 152.000000
3.768947 -1.985481 -2.133317 152.000000
3.740737 -1.931470 -2.100766 154.000000
3.444017 -1.671399 -1.872795 156.000000
3.450413 -1.663629 -1.872802 159.000000
3.456511 -1.656158 -1.872810 154.000000
4.131268 -2.188290 -2.369495 154.000000
4.139822 -2.177635 -2.369505 152.000000
4.071727 -1.965605 -2.263746 154.000000
4.079032 -1.955636 -2.263755 154.000000
4.086298 -1.945638 -2.263764 152.000000
4.418255 -1.682999 -2.345471 152.000000
4.423888 -1.672630 -2.345479 156.000000
5.432649 -0.595470 -2.720851 154.000000
5.434289 -0.581389 -2.720856 168.000000
5.435803 -0.567972 -2.720861 170.000000
5.437270 -0.554551 -2.720866 170.000000
5.438760 -0.540453 -2.720871 168.000000
5.440131 -0.527022 -2.720876 158.000000
5.535524 0.116945 -2.769939 156.000000
5.534553 0.131398 -2.769942 159.000000
5.533528 0.145848 -2.769945 161.000000
5.532450 0.160294 -2.769948 152.000000
5.382240 0.375032 -2.696658 152.000000
5.380324 0.388921 -2.696661 154.000000
5.286316 0.446320 -2.647784 161.000000
5.284139 0.459858 -2.647785 173.000000
5.267913 0.471718 -2.639639 161.000000
5.265643 0.485187 -2.639641 170.000000
5.263212 0.499290 -2.639643 177.000000
5.246862 0.510911 -2.631496 154.000000
5.244448 0.524304 -2.631498 156.000000
5.241867 0.538324 -2.631499 154.000000
5.253067 0.554964 -2.639649 152.000000
4.904738 1.156198 -2.541885 152.000000
4.899505 1.169487 -2.541884 156.000000
4.893987 1.183331 -2.541883 156.000000
4.875362 1.191854 -2.533734 154.000000
3.263275 0.692734 -1.564128 159.000000
3.259623 0.700015 -1.564127 166.000000
3.255939 0.707281 -1.564126 173.000000
3.252223 0.714531 -1.564125 177.000000
3.248326 0.722053 -1.564123 177.000000
3.244546 0.729269 -1.564122 173.000000
3.240581 0.736756 -1.564120 168.000000
3.236583 0.744225 -1.564119 156.000000
3.244920 0.758409 -1.572265 156.000000
3.253162 0.772686 -1.580411 161.000000
3.249001 0.780212 -1.580409 156.000000
3.244805 0.787719 -1.580408 154.000000
3.240575 0.795207 -1.580406 156.000000
3.236311 0.802675 -1.580404 159.000000
3.231848 0.810411 -1.580402 158.000000
3.324703 0.874833 -1.645581 154.000000
3.319898 0.882984 -1.645579 152.000000
3.278813 0.869398 -1.621134 152.000000
3.286260 0.884332 -1.629280 152.000000
3.124971 -1.757831 -1.767756 151.000000
3.132003 -1.751174 -1.767763 160.000000
3.139006 -1.744486 -1.767770 167.000000
3.145979 -1.737768 -1.767777 174.000000
3.153201 -1.730749 -1.767784 181.000000
3.150235 -1.713932 -1.759642 151.000000
3.157075 -1.707164 -1.759649 151.000000
3.163886 -1.700368 -1.759656 151.000000
3.180403 -1.703723 -1.767811 186.000000
3.187198 -1.696825 -1.767818 179.000000
3.193964 -1.689896 -1.767825 167.000000
3.200429 -1.683218 -1.767831 153.000000
3.237666 -1.705433 -1.792284 184.000000
3.244197 -1.698571 -1.792290 172.000000
3.250969 -1.691394 -1.792297 158.000000
3.339842 -1.761302 -1.857495 177.000000
3.346606 -1.754011 -1.857502 167.000000
3.353619 -1.746386 -1.857509 160.000000
3.360321 -1.739038 -1.857515 153.000000
3.366991 -1.731661 -1.857522 151.000000
3.373630 -1.724257 -1.857528 151.000000
3.380239 -1.716825 -1.857535 151.000000
3.439711 -1.755840 -1.898287 170.000000
3.446451 -1.748130 -1.898294 155.000000
3.687287 -1.943288 -2.077585 153.000000
3.694811 -1.934539 -2.077592 153.000000
3.713029 -1.934877 -2.085749 160.000000
3.720205 -1.926390 -2.085756 158.000000
3.727657 -1.917503 -2.085763 153.000000
3.745606 -1.917943 -2.093919 158.000000
3.753023 -1.908950 -2.093926 153.000000
3.771011 -1.909200 -2.102082 155.000000
4.128524 -2.183776 -2.362876 151.000000
4.050545 -1.962629 -2.248853 151.000000
4.068846 -1.961575 -2.257009 155.000000
4.076127 -1.951658 -2.257016 162.000000
4.083368 -1.941713 -2.257022 165.000000
4.090257 -1.932173 -2.257029 165.000000
4.097419 -1.922170 -2.257035 151.000000
5.576781 -0.659901 -2.803596 151.000000
5.592619 -0.647093 -2.811747 155.000000
5.594355 -0.633158 -2.811747 160.000000
5.596043 -0.619218 -2.811746 162.000000
5.597762 -0.604574 -2.811745 167.000000
5.403443 -0.568680 -2.697619 151.000000
5.404907 -0.555406 -2.697618 155.000000
5.406394 -0.541464 -2.697617 158.000000
5.407763 -0.528181 -2.697617 158.000000
5.409150 -0.514228 -2.697616 153.000000
5.592670 -0.518066 -2.803589 165.000000
5.593956 -0.504132 -2.803588 151.000000
5.793315 -0.131183 -2.909510 153.000000
5.793245 -0.115819 -2.909507 157.000000
5.793126 -0.101187 -2.909504 158.000000
5.792945 -0.085824 -2.909501 155.000000
5.792708 -0.070462 -2.909498 150.000000
5.479407 0.036571 -2.730138 150.000000
5.478724 0.050783 -2.730135 162.000000
5.478025 0.064315 -2.730131 160.000000
5.477240 0.078521 -2.730128 155.000000
5.546678 0.097006 -2.770882 177.000000
5.545773 0.111464 -2.770878 177.000000
5.544815 0.125918 -2.770875 167.000000
5.246113 0.489188 -2.624025 151.000000
5.243659 0.503177 -2.624020 151.000000
3.259950 0.654382 -1.547825 155.000000
3.256455 0.661604 -1.547820 162.000000
3.252929 0.668811 -1.547814 160.000000
3.249228 0.676290 -1.547809 153.000000
3.258216 0.689800 -1.555952 172.000000
3.254567 0.697014 -1.555946 167.000000
3.250886 0.704212 -1.555941 162.000000
3.247025 0.711681 -1.555935 155.000000
3.243772 0.776966 -1.572189 151.000000
3.239581 0.784402 -1.572183 160.000000
3.235356 0.791819 -1.572177 162.000000
3.230933 0.799501 -1.572170 165.000000
3.226639 0.806879 -1.572164 162.000000
3.222145 0.814520 -1.572157 158.000000
3.217615 0.822139 -1.572151 151.000000
3.146148 -1.761137 -1.757290 150.000000
3.153429 -1.754366 -1.757303 155.000000
3.160401 -1.747824 -1.757314 153.000000
3.222893 -1.785436 -1.798247 177.000000
3.220511 -1.768203 -1.790078 157.000000
3.227543 -1.761369 -1.790089 170.000000
3.234545 -1.754503 -1.790100 181.000000
3.241518 -1.747607 -1.790112 192.000000
3.248182 -1.740959 -1.790122 197.000000
3.255095 -1.734003 -1.790133 199.000000
3.261977 -1.727018 -1.790144 199.000000
3.268556 -1.720284 -1.790154 192.000000
3.275378 -1.713240 -1.790165 186.000000
3.281899 -1.706450 -1.790175 172.000000
3.288661 -1.699348 -1.790185 159.000000
3.366808 -1.759969 -1.847474 153.000000
3.445491 -1.819960 -1.904764 157.000000
3.483716 -1.840791 -1.929323 159.000000
3.397504 -1.747567 -1.855687 150.000000
3.404168 -1.740264 -1.855696 150.000000
3.504781 -1.817705 -1.929353 153.000000
3.522219 -1.819327 -1.937546 150.000000
3.726192 -1.970807 -2.084863 153.000000
3.733473 -1.962485 -2.084873 157.000000
3.741036 -1.953770 -2.084884 161.000000
3.374961 -1.624599 -1.798476 153.000000
3.755740 -1.936612 -2.084903 161.000000
3.763193 -1.927804 -2.084913 159.000000
3.770302 -1.919333 -2.084922 153.000000
4.118580 -2.160104 -2.330459 153.000000
4.126968 -2.149771 -2.330469 153.000000
4.145935 -2.148636 -2.338662 150.000000
4.239149 -2.189568 -2.395968 150.000000
4.258379 -2.187849 -2.404161 150.000000
3.920764 -1.865673 -2.134125 150.000000
3.927622 -1.856570 -2.134133 150.000000
3.945425 -1.856237 -2.142323 164.000000
3.952245 -1.847035 -2.142330 157.000000
4.120519 -1.926523 -2.248746 150.000000
4.127312 -1.917048 -2.248752 153.000000
5.381897 0.306490 -2.664122 153.000000
5.380192 0.320147 -2.664095 153.000000
5.378353 0.334447 -2.664067 153.000000
4.914418 1.166080 -2.522993 159.000000
4.908868 1.179720 -2.522954 163.000000
4.903261 1.193337 -2.522914 163.000000
4.897597 1.206930 -2.522875 159.000000
4.891637 1.221064 -2.522834 150.000000
3.140283 -1.774352 -1.744413 151.000000
3.147580 -1.767789 -1.744436 162.000000
3.154847 -1.761192 -1.744458 174.000000
3.161806 -1.754818 -1.744480 184.000000
3.169015 -1.748156 -1.744502 191.000000
3.175917 -1.741721 -1.744523 195.000000
3.182791 -1.735255 -1.744544 195.000000
3.189637 -1.728759 -1.744564 193.000000
3.196727 -1.721972 -1.744586 188.000000
3.203515 -1.715415 -1.744606 179.000000
3.210274 -1.708829 -1.744626 155.000000
3.246575 -1.732239 -1.769275 167.000000
3.253134 -1.725736 -1.769294 160.000000
3.259938 -1.718933 -1.769313 155.000000
3.316639 -1.761499 -1.810383 177.000000
3.323321 -1.754702 -1.810402 167.000000
3.330251 -1.747591 -1.810422 158.000000
3.357096 -1.760239 -1.826861 172.000000
3.364050 -1.752980 -1.826881 158.000000
3.380891 -1.755648 -1.835110 155.000000
3.397782 -1.758202 -1.843339 162.000000
3.404727 -1.750766 -1.843358 155.000000
3.617689 -1.934256 -2.007596 151.000000
3.625094 -1.926191 -2.007616 153.000000
3.632465 -1.918096 -2.007635 155.000000
3.639802 -1.909970 -2.007655 153.000000
3.762329 -2.004751 -2.097999 172.000000
3.770029 -1.996078 -2.098019 174.000000
3.777374 -1.987736 -2.098038 174.000000
3.785002 -1.979000 -2.098058 172.000000
3.771337 -1.951868 -2.081654 153.000000
3.778504 -1.943521 -2.081671 158.000000
